ply
format ascii 1.0
comment PCL generated
element vertex 966
property float x
property float y
property float z
property uchar red
property uchar green
property uchar blue
element camera 0
property float view_px
property float view_py
property float view_pz
property float x_axisx
property float x_axisy
property float x_axisz
property float y_axisx
property float y_axisy
property float y_axisz
property float z_axisx
property float z_axisy
property float z_axisz
property float focal
property float scalex
property float scaley
property float centerx
property float centery
property int viewportx
property int viewporty
property float k1
property float k2
end_header
-0.0012003779 -0.0099656582 0.053310573 255 255 255
-0.0016473532 -0.009716928 0.052103221 255 255 255
-0.0020942688 -0.0094682574 0.050895751 255 255 255
-0.002541244 -0.0092195272 0.04968828 255 255 255
-0.0037341714 -0.0082275271 0.048624098 255 255 255
-0.0041804314 -0.0079791546 0.047418416 255 255 255
-0.0061161518 -0.0062456727 0.046506107 255 255 255
-0.0073053241 -0.0052557588 0.045452297 255 255 255
-0.008493185 -0.0042665601 0.044401824 255 255 255
-0.0089369416 -0.004019618 0.043203056 255 255 255
-0.0093806982 -0.003772676 0.042004168 255 255 255
-0.0098244548 -0.0035257936 0.040805399 255 255 255
-0.0014355183 -0.011336386 0.054539382 255 255 255
-0.0018824339 -0.011087716 0.053332031 255 255 255
-0.0023294091 -0.010838985 0.05212456 255 255 255
-0.0027763247 -0.010590255 0.050917089 255 255 255
-0.0032232404 -0.010341585 0.049709618 255 255 255
-0.0044152141 -0.0093479753 0.048645437 255 255 255
-0.0048615336 -0.0090996027 0.047439754 255 255 255
-0.0067952871 -0.0073629022 0.046527326 255 255 255
-0.0079834461 -0.0063714385 0.045473516 255 255 255
-0.0091703534 -0.0053805709 0.044423044 255 255 255
-0.00961411 -0.0051336884 0.043224275 255 255 255
-0.010057867 -0.0048866868 0.042025387 255 255 255
-0.010501564 -0.0046398044 0.040826619 255 255 255
-0.002864778 -0.011710167 0.054695308 255 255 255
-0.003311038 -0.011461794 0.053489625 255 255 255
-0.0037573576 -0.011213422 0.052283943 255 255 255
-0.0042036772 -0.010965049 0.051078141 255 255 255
-0.0046499372 -0.010716736 0.049872458 255 255 255
-0.0050962567 -0.010468364 0.048666775 255 255 255
-0.0070293546 -0.0087277293 0.04775089 255 255 255
-0.0074743629 -0.0084801316 0.046548545 255 255 255
-0.0086615682 -0.0074870586 0.045494735 255 255 255
-0.0098475218 -0.0064945817 0.044444263 255 255 255
-0.010291278 -0.0062476993 0.043245375 255 255 255
-0.010735035 -0.0060007572 0.042046607 255 255 255
-0.011178792 -0.0057538152 0.040847719 255 255 255
-0.0035458207 -0.012830615 0.054716647 255 255 255
-0.0039921403 -0.012582242 0.053510964 255 255 255
-0.0044384599 -0.01233387 0.052305162 255 255 255
-0.0048847198 -0.012085497 0.051099479 255 255 255
-0.0053310394 -0.011837184 0.049893796 255 255 255
-0.005777359 -0.011588812 0.048688114 255 255 255
-0.0077084899 -0.0098449588 0.04777211 255 255 255
-0.0081534982 -0.0095973611 0.046569884 255 255 255
-0.0093397498 -0.0086026788 0.045515954 255 255 255
-0.0097841024 -0.0083553791 0.044315398 255 255 255
-0.010968447 -0.0073617101 0.043266594 255 255 255
-0.011412203 -0.007114768 0.042067826 255 255 255
-0.01185596 -0.006867826 0.040868938 255 255 255
-0.0034816265 -0.014702499 0.054603398 255 255 255
-0.0039285421 -0.014453769 0.053395927 255 255 255
-0.0051195025 -0.013454318 0.0523265 255 255 255
-0.0055658221 -0.013205945 0.051120818 255 255 255
-0.0060120821 -0.012957633 0.049915135 255 255 255
-0.0064584017 -0.01270926 0.048709333 255 255 255
-0.0083875656 -0.010962188 0.047793329 255 255 255
-0.0088326335 -0.010714591 0.046591103 255 255 255
-0.010017872 -0.0097182989 0.045537055 255 255 255
-0.011201859 -0.0087227225 0.044486582 255 255 255
-0.011645615 -0.0084757209 0.043287814 255 255 255
-0.012089372 -0.0082288384 0.042088926 255 255 255
-0.012533128 -0.0079818964 0.040890157 255 255 255
-0.0041636825 -0.015824497 0.054624736 255 255 255
-0.0046105981 -0.015575826 0.053417385 255 255 255
-0.0050575137 -0.015327096 0.052209914 255 255 255
-0.0055044889 -0.015078425 0.051002443 255 255 255
-0.0059514046 -0.014829695 0.049794972 255 255 255
-0.0071394444 -0.013829648 0.048730671 255 255 255
-0.0090667009 -0.012079418 0.047814548 255 255 255
-0.010251641 -0.011081219 0.046758831 255 255 255
-0.010695994 -0.010833919 0.045558274 255 255 255
-0.011879027 -0.0098367333 0.044507802 255 255 255
-0.012322783 -0.0095897913 0.043308914 255 255 255
-0.01276654 -0.0093428493 0.042110145 255 255 255
-0.013210297 -0.0090959072 0.040911376 255 255 255
-0.0038071871 -0.018206537 0.05316633 255 255 255
-0.0057395697 -0.016449153 0.052231252 255 255 255
-0.0061864853 -0.016200423 0.051023781 255 255 255
-0.0066334605 -0.015951693 0.04981631 255 255 255
-0.0078205466 -0.014950097 0.04875201 255 255 255
-0.0097458363 -0.013196647 0.047835886 255 255 255
-0.010929763 -0.012196839 0.04678005 255 255 255
-0.012112439 -0.011197686 0.045727789 255 255 255
-0.012556195 -0.010950744 0.044529021 255 255 255
-0.012999952 -0.010703802 0.043330133 255 255 255
-0.013443708 -0.01045686 0.042131364 255 255 255
-0.013887465 -0.010209978 0.040932596 255 255 255
-0.0044911504 -0.019331753 0.053187668 255 255 255
-0.0049393773 -0.019082367 0.05197686 255 255 255
-0.0068685412 -0.017322481 0.05104512 255 255 255
-0.0073154569 -0.01707375 0.049837768 255 255 255
-0.0085015893 -0.016070545 0.048773348 255 255 255
-0.010424972 -0.014313936 0.047857106 255 255 255
-0.011607945 -0.013312519 0.046801269 255 255 255
-0.012789607 -0.012311757 0.045749009 255 255 255
-0.013233364 -0.012064755 0.044550121 255 255 255
-0.01367712 -0.011817873 0.043351352 255 255 255
-0.014120877 -0.01157093 0.042152584 255 255 255
-0.013829887 -0.01207602 0.040798604 255 255 255
-0.0044343472 -0.021214485 0.053072989 255 255 255
-0.0056234002 -0.020207584 0.051998198 255 255 255
-0.0075505972 -0.018444479 0.051066458 255 255 255
-0.0079975128 -0.018195808 0.049858987 255 255 255
-0.008444488 -0.017947078 0.048651636 255 255 255
-0.0096289515 -0.01694268 0.047588885 255 255 255
-0.012286067 -0.014428139 0.046822488 255 255 255
-0.013466775 -0.013425767 0.045770228 255 255 255
-0.013910532 -0.013178825 0.04457134 255 255 255
-0.014354289 -0.012931883 0.043372571 255 255 255
-0.014798045 -0.012684941 0.042173684 255 255 255
-0.015241802 -0.012437999 0.040974915 255 255 255
-0.0051193237 -0.022341311 0.053094447 255 255 255
-0.0063073635 -0.0213328 0.052019656 255 255 255
-0.0067555904 -0.021083415 0.050808728 255 255 255
-0.0072037578 -0.020833969 0.049597919 255 255 255
-0.0091264844 -0.019069135 0.048672974 255 255 255
-0.010309994 -0.018063068 0.047610223 255 255 255
-0.012228191 -0.016300738 0.046697319 255 255 255
-0.014143944 -0.014539778 0.045791328 255 255 255
-0.0145877 -0.014292836 0.044592559 255 255 255
-0.015031457 -0.014045894 0.043393791 255 255 255
-0.015475214 -0.013798952 0.042194903 255 255 255
-0.01591897 -0.01355201 0.040996134 255 255 255
-0.0038765669 -0.025240123 0.054059803 255 255 255
-0.0058043003 -0.023468196 0.053115785 255 255 255
-0.0062531233 -0.023218393 0.051903188 255 255 255
-0.0067020059 -0.02296865 0.050690591 255 255 255
-0.0078877807 -0.021959245 0.049619257 255 255 255
-0.0098085403 -0.020191133 0.048694313 255 255 255
-0.010255456 -0.019942462 0.047486842 255 255 255
-0.013642371 -0.016659379 0.046864927 255 255 255
-0.014086723 -0.016412079 0.04566437 255 255 255
-0.015264869 -0.015406907 0.044613779 255 255 255
-0.015708625 -0.015159965 0.043414891 255 255 255
-0.016152382 -0.014913023 0.042216122 255 255 255
-0.016596138 -0.01466608 0.041017234 255 255 255
-0.0045634508 -0.026370108 0.054081261 255 255 255
-0.0050135851 -0.026119649 0.052865207 255 255 255
-0.0069380999 -0.024345219 0.051924646 255 255 255
-0.0073869228 -0.024095476 0.050712049 255 255 255
-0.008571744 -0.023084462 0.049640596 255 255 255
-0.010490596 -0.02131319 0.048715651 255 255 255
-0.010937512 -0.02106446 0.04750818 255 255 255
-0.014320493 -0.017774999 0.046886146 255 255 255
-0.014764905 -0.017527759 0.045685589 255 255 255
-0.015942037 -0.016520917 0.044634879 255 255 255
-0.016385794 -0.016273975 0.04343611 255 255 255
-0.01682955 -0.016027033 0.042237222 255 255 255
-0.017273307 -0.015780091 0.041038454 255 255 255
-0.0052503347 -0.027500153 0.054102719 255 255 255
-0.005700469 -0.027249694 0.052886665 255 255 255
-0.0061506033 -0.026999176 0.05167073 255 255 255
-0.0080718994 -0.025222301 0.050733507 255 255 255
-0.0092557073 -0.024209678 0.049662054 255 255 255
-0.011172593 -0.022435248 0.048736989 255 255 255
-0.012353182 -0.021424353 0.047674119 255 255 255
-0.014265597 -0.019652426 0.046761096 255 255 255
-0.015443027 -0.018643379 0.045706809 255 255 255
-0.016619265 -0.017634928 0.044656098 255 255 255
-0.017062962 -0.017388046 0.043457329 255 255 255
-0.017506719 -0.017141044 0.042258441 255 255 255
-0.017950475 -0.016894162 0.041059673 255 255 255
-0.0059372783 -0.028630197 0.054124296 255 255 255
-0.0063874125 -0.028379738 0.052908242 255 255 255
-0.0068374872 -0.02812922 0.051692188 255 255 255
-0.0087568164 -0.026349127 0.050754964 255 255 255
-0.0099397302 -0.025334895 0.049683511 255 255 255
-0.011854649 -0.023557246 0.048758328 255 255 255
-0.013034284 -0.022544801 0.047695458 255 255 255
-0.014944673 -0.020769656 0.046782315 255 255 255
-0.016121209 -0.019758999 0.045728028 255 255 255
-0.017296433 -0.018748939 0.044677317 255 255 255
-0.01774013 -0.018502057 0.043478429 255 255 255
-0.018183887 -0.018255115 0.042279661 255 255 255
-0.018627644 -0.018008173 0.041080892 255 255 255
-0.0066241622 -0.029760242 0.054145753 255 255 255
-0.0070742965 -0.029509783 0.052929699 255 255 255
-0.0075244308 -0.029259264 0.051713645 255 255 255
-0.009441793 -0.027476013 0.050776303 255 255 255
-0.010623693 -0.026460171 0.04970485 255 255 255
-0.012536705 -0.024679244 0.048779666 255 255 255
-0.013715327 -0.023665249 0.047716796 255 255 255
-0.014161646 -0.023416877 0.046511114 255 255 255
-0.016799331 -0.020874619 0.045749247 255 255 255
-0.017973602 -0.019863009 0.044698536 255 255 255
-0.018417299 -0.019616067 0.043499649 255 255 255
-0.018861055 -0.019369125 0.04230088 255 255 255
-0.020760596 -0.017595768 0.041411817 255 255 255
-0.0065764189 -0.031659424 0.054033101 255 255 255
-0.0077611804 -0.030639827 0.052951157 255 255 255
-0.0082113147 -0.030389309 0.051735103 255 255 255
-0.01012677 -0.028602839 0.05079776 255 255 255
-0.012771785 -0.026050031 0.050008476 255 255 255
-0.013218701 -0.025801361 0.048801005 255 255 255
-0.014396369 -0.024785697 0.047738135 255 255 255
-0.014842689 -0.024537325 0.046532333 255 255 255
-0.016747952 -0.022756517 0.045622528 255 255 255
-0.01865077 -0.02097702 0.044719636 255 255 255
-0.019094467 -0.020730078 0.043520868 255 255 255
-0.019538224 -0.020483136 0.042322099 255 255 255
-0.021435857 -0.01870662 0.041432917 255 255 255
-0.0072643161 -0.032791078 0.054054558 255 255 255
-0.0084480643 -0.031769812 0.052972734 255 255 255
-0.0088981986 -0.031519353 0.05175668 255 255 255
-0.010811746 -0.029729664 0.050819218 255 255 255
-0.013453782 -0.027172089 0.050029814 255 255 255
-0.013900757 -0.026923358 0.048822343 255 255 255
-0.015077472 -0.025906146 0.047759354 255 255 255
-0.015523791 -0.025657773 0.046553671 255 255 255
-0.017427087 -0.023873746 0.045643866 255 255 255
-0.018599987 -0.02285856 0.044591248 255 255 255
-0.019771695 -0.021844149 0.043542087 255 255 255
-0.020215452 -0.021597207 0.042343199 255 255 255
-0.020659149 -0.021350265 0.041144431 255 255 255
-0.0086848736 -0.033150375 0.054210246 255 255 255
-0.0091350079 -0.032899916 0.052994192 255 255 255
-0.011047781 -0.031106293 0.052053273 255 255 255
-0.012227416 -0.030085266 0.050979912 255 255 255
-0.014135838 -0.028294146 0.050051153 255 255 255
-0.014582813 -0.028045416 0.048843682 255 255 255
-0.015758514 -0.027026534 0.047780693 255 255 255
-0.017661154 -0.025238574 0.046867311 255 255 255
-0.018833756 -0.024221539 0.045812905 255 255 255
-0.019278169 -0.02397424 0.044612467 255 255 255
-0.020448864 -0.022958159 0.043563187 255 255 255
-0.02089262 -0.022711217 0.042364419 255 255 255
-0.021336377 -0.022464335 0.04116565 255 255 255
-0.0093717575 -0.03428036 0.054231703 255 255 255
-0.011283934 -0.032482862 0.053287327 255 255 255
-0.011732757 -0.032233119 0.05207473 255 255 255
-0.012911439 -0.031210542 0.05100137 255 255 255
-0.014817894 -0.029416144 0.050072491 255 255 255
-0.015993297 -0.028395355 0.049007714 255 255 255
-0.016439617 -0.028146982 0.047802031 255 255 255
-0.01834029 -0.026355803 0.04688853 255 255 255
-0.019511878 -0.02533716 0.045834124 255 255 255
-0.019956291 -0.02508986 0.044633687 255 255 255
-0.021126032 -0.02407223 0.043584406 255 255 255
-0.021569788 -0.023825288 0.042385638 255 255 255
-0.022013545 -0.023578346 0.04118675 255 255 255
-0.011520028 -0.033859491 0.054521382 255 255 255
-0.011968851 -0.033609688 0.053308666 255 255 255
-0.012417734 -0.033359945 0.052096069 255 255 255
-0.013595402 -0.032335758 0.051022708 255 255 255
-0.01549989 -0.030538142 0.05009383 255 255 255
-0.01667434 -0.029515803 0.049029052 255 255 255
-0.017120659 -0.02926743 0.04782337 255 255 255
-0.019019425 -0.027473032 0.046909869 255 255 255
-0.02019006 -0.02645278 0.045855343 255 255 255
-0.020634413 -0.02620548 0.044654906 255 255 255
-0.0218032 -0.025186241 0.043605626 255 255 255
-0.022246957 -0.024939299 0.042406738 255 255 255
-0.022690713 -0.024692357 0.041207969 255 255 255
-0.012204945 -0.034986317 0.05454272 255 255 255
-0.012653828 -0.034736574 0.053330123 255 255 255
-0.01310271 -0.034486771 0.052117527 255 255 255
-0.014279366 -0.033460975 0.051044166 255 255 255
-0.016181946 -0.031660199 0.050115168 255 255 255
-0.017355442 -0.030636191 0.049050391 255 255 255
-0.017801702 -0.030387819 0.047844589 255 255 255
-0.019698501 -0.028590262 0.046931088 255 255 255
-0.020143509 -0.028342664 0.045728862 255 255 255
-0.021312594 -0.02732116 0.044676125 255 255 255
-0.021757007 -0.02707386 0.043475568 255 255 255
-0.022924125 -0.026053309 0.042427957 255 255 255
-0.023367882 -0.025806367 0.041229188 255 255 255
-0.011432469 -0.037670493 0.054296196 255 255 255
-0.013338804 -0.03586334 0.053351581 255 255 255
-0.013787627 -0.035613596 0.052138984 255 255 255
-0.014963388 -0.034586251 0.051065624 255 255 255
-0.016864002 -0.032782257 0.050136507 255 255 255
-0.018036485 -0.031756639 0.049071729 255 255 255
-0.018482804 -0.031508267 0.047865927 255 255 255
-0.020377636 -0.029707551 0.046952307 255 255 255
-0.020822644 -0.029459894 0.045750082 255 255 255
-0.021990716 -0.02843678 0.044697344 255 255 255
-0.022435129 -0.02818948 0.043496788 255 255 255
-0.023601294 -0.02716738 0.042449176 255 255 255
-0.02404505 -0.026920438 0.041250408 255 255 255
-0.01139158 -0.039580882 0.054183662 255 255 255
-0.014023721 -0.036990225 0.053373039 255 255 255
-0.014472604 -0.036740482 0.052160442 255 255 255
-0.015647352 -0.035711467 0.051086962 255 255 255
-0.017546058 -0.033904254 0.050157845 255 255 255
-0.018717527 -0.032877028 0.049092948 255 255 255
-0.019163847 -0.032628715 0.047887266 255 255 255
-0.021056771 -0.03082478 0.046973646 255 255 255
-0.02150178 -0.030577123 0.045771301 255 255 255
-0.023390949 -0.028775275 0.044868052 255 255 255
-0.023834705 -0.028528333 0.043669164 255 255 255
-0.024278462 -0.028281391 0.042470396 255 255 255
-0.024722219 -0.028034449 0.041271508 255 255 255
-0.012079418 -0.040712535 0.054205239 255 255 255
-0.013256371 -0.039680064 0.053123176 255 255 255
-0.013706505 -0.039429605 0.051907122 255 255 255
-0.016331315 -0.036836684 0.051108301 255 255 255
-0.018228054 -0.035026312 0.050179183 255 255 255
-0.01939863 -0.033997476 0.049114287 255 255 255
-0.021290839 -0.032189667 0.048197091 255 255 255
-0.021735847 -0.03194201 0.046994865 255 255 255
-0.022180915 -0.031694353 0.04579252 255 255 255
-0.024068117 -0.029889286 0.044889152 255 255 255
-0.024511874 -0.029642344 0.043690383 255 255 255
-0.02495563 -0.029395401 0.042491615 255 255 255
-0.025399387 -0.029148519 0.041292727 255 255 255
-0.012767315 -0.04184413 0.054226816 255 255 255
-0.016118884 -0.038460791 0.053551495 255 255 255
-0.016567111 -0.038211346 0.052340686 255 255 255
-0.017015338 -0.03796196 0.051129758 255 255 255
-0.01891011 -0.036148369 0.050200522 255 255 255
-0.020079672 -0.035117924 0.049135625 255 255 255
-0.021969974 -0.033306897 0.04821831 255 255 255
-0.022414982 -0.033059239 0.047016084 255 255 255
-0.022859991 -0.032811582 0.045813859 255 255 255
-0.024025142 -0.03178364 0.044761002 255 255 255
-0.024469554 -0.031536341 0.043560445 255 255 255
-0.025632799 -0.030509412 0.042512715 255 255 255
-0.026076555 -0.03026253 0.041313946 255 255 255
-0.014180064 -0.042190671 0.054382145 255 255 255
-0.016802847 -0.039586008 0.053572953 255 255 255
-0.018698275 -0.037767828 0.052636683 255 255 255
-0.019145191 -0.037519097 0.051429212 255 255 255
-0.019592166 -0.037270367 0.05022186 255 255 255
-0.020760715 -0.036238372 0.049156845 255 255 255
-0.021207035 -0.03599 0.047951162 255 255 255
-0.023094118 -0.034176469 0.047037303 255 255 255
-0.023539126 -0.033928812 0.045835078 255 255 255
-0.024703324 -0.03289932 0.044782221 255 255 255
-0.025147736 -0.03265202 0.043581665 255 255 255
-0.026309967 -0.031623483 0.042533934 255 255 255
-0.026753724 -0.031376541 0.041335166 255 255 255
-0.016314685 -0.041747391 0.054671347 255 255 255
-0.01748687 -0.040711224 0.053594291 255 255 255
-0.019380331 -0.038889825 0.052658021 255 255 255
-0.019827247 -0.038641155 0.05145067 255 255 255
-0.020274162 -0.038392425 0.050243199 255 255 255
-0.021441817 -0.03735882 0.049178183 255 255 255
-0.021888077 -0.037110448 0.0479725 255 255 255
-0.023773253 -0.035293698 0.047058523 255 255 255
-0.024218261 -0.035046041 0.045856297 255 255 255
-0.025381446 -0.03401494 0.044803441 255 255 255
-0.025825858 -0.033767641 0.043602884 255 255 255
-0.026987135 -0.032737553 0.042555153 255 255 255
-0.027430892 -0.032490611 0.041356266 255 255 255
-0.016999662 -0.042874157 0.054692805 255 255 255
-0.017448545 -0.042624414 0.053480208 255 255 255
-0.018619061 -0.041587055 0.052404821 255 255 255
-0.019067287 -0.041337669 0.051194012 255 255 255
-0.019515455 -0.041088223 0.049983084 255 255 255
-0.021403134 -0.039265752 0.049057066 255 255 255
-0.021850109 -0.039017022 0.047849596 255 255 255
-0.023015499 -0.037982523 0.046788156 255 255 255
-0.023461759 -0.03773421 0.045582354 255 255 255
-0.025342405 -0.035915673 0.044675291 255 255 255
-0.025787413 -0.035667956 0.043473065 255 255 255
-0.026948392 -0.034635961 0.042423546 255 255 255
-0.027392805 -0.034388661 0.04122299 255 255 255
-0.016240776 -0.045580745 0.054446638 255 255 255
-0.018133461 -0.04375124 0.053501546 255 255 255
-0.019303024 -0.042712271 0.052426279 255 255 255
-0.019751251 -0.042462885 0.051215351 255 255 255
-0.020199478 -0.04221344 0.050004542 255 255 255
-0.02208519 -0.040387809 0.049078405 255 255 255
-0.022532165 -0.040139079 0.047870934 255 255 255
-0.022979081 -0.039890349 0.046663582 255 255 255
-0.024142861 -0.038854599 0.045603693 255 255 255
-0.02602154 -0.037032902 0.04469651 255 255 255
-0.026466548 -0.036785185 0.043494284 255 255 255
-0.027626514 -0.035751581 0.042444766 255 255 255
-0.028070927 -0.035504282 0.041244209 255 255 255
-0.015755892 -0.047753155 0.055552185 255 255 255
-0.01692766 -0.046710789 0.054468095 255 255 255
-0.018818438 -0.044878066 0.053523004 255 255 255
-0.019987047 -0.043837547 0.052447617 255 255 255
-0.020435214 -0.043588102 0.051236808 255 255 255
-0.020883441 -0.043338716 0.05002588 255 255 255
-0.022767246 -0.041509807 0.049099743 255 255 255
-0.023214161 -0.041261137 0.047892272 255 255 255
-0.024377584 -0.04022342 0.046830714 255 255 255
-0.026255608 -0.038397729 0.045920074 255 255 255
-0.026700616 -0.038150132 0.044717848 255 255 255
-0.027860284 -0.037114561 0.043666542 255 255 255
-0.028304696 -0.036867201 0.042465985 255 255 255
-0.028749049 -0.036619961 0.041265428 255 255 255
-0.016443789 -0.048884809 0.055573642 255 255 255
-0.017614603 -0.047840834 0.054489672 255 255 255
-0.019503415 -0.046004891 0.053544462 255 255 255
-0.02067101 -0.044962764 0.052469075 255 255 255
-0.021119237 -0.044713318 0.051258147 255 255 255
-0.021567404 -0.044463933 0.050047338 255 255 255
-0.023449242 -0.042631865 0.049121082 255 255 255
-0.023896217 -0.042383134 0.04791373 255 255 255
-0.025058687 -0.041343868 0.046852052 255 255 255
-0.026934743 -0.039514959 0.045941293 255 255 255
-0.027379751 -0.039267361 0.044739068 255 255 255
-0.028538465 -0.038230181 0.043687761 255 255 255
-0.028982818 -0.037982881 0.042487204 255 255 255
-0.02942723 -0.037735581 0.041286647 255 255 255
-0.017131686 -0.050016463 0.055595219 255 255 255
-0.018301487 -0.048970878 0.05451113 255 255 255
-0.020188332 -0.047131717 0.053565919 255 255 255
-0.021354973 -0.04608798 0.052490413 255 255 255
-0.0218032 -0.045838594 0.051279604 255 255 255
-0.022251427 -0.045589149 0.050068676 255 255 255
-0.024131298 -0.043753862 0.04914242 255 255 255
-0.024578273 -0.043505192 0.047934949 255 255 255
-0.025739729 -0.042464256 0.046873391 255 255 255
-0.027613878 -0.040632188 0.045962512 255 255 255
-0.028058887 -0.040384591 0.044760287 255 255 255
-0.029216588 -0.039345801 0.04370898 255 255 255
-0.029661 -0.039098501 0.042508423 255 255 255
-0.030105352 -0.038851202 0.041307867 255 255 255
-0.018270314 -0.050897241 0.054398954 255 255 255
-0.019438505 -0.049850464 0.053316534 255 255 255
-0.021322131 -0.0480088 0.05237478 255 255 255
-0.022487164 -0.046963811 0.051300943 255 255 255
-0.02293539 -0.046714365 0.050090134 255 255 255
-0.024813354 -0.04487592 0.049163759 255 255 255
-0.025974512 -0.043833077 0.048100412 255 255 255
-0.026420832 -0.043584704 0.04689461 255 255 255
-0.028292954 -0.041749418 0.045983851 255 255 255
-0.029450357 -0.040708721 0.044930756 255 255 255
-0.02989471 -0.040461421 0.043730199 255 255 255
-0.030339122 -0.040214121 0.042529643 255 255 255
-0.030783534 -0.039966822 0.041329086 255 255 255
-0.018958151 -0.052028894 0.054420531 255 255 255
-0.020125449 -0.050980508 0.05333811 255 255 255
-0.022007108 -0.049135625 0.052396238 255 255 255
-0.023171186 -0.048089087 0.051322401 255 255 255
-0.023619354 -0.047839642 0.050111473 255 255 255
-0.02549535 -0.045997918 0.049185097 255 255 255
-0.026655555 -0.044953525 0.048121631 255 255 255
-0.027101874 -0.044705153 0.046915948 255 255 255
-0.028972089 -0.042866707 0.04600507 255 255 255
-0.030128479 -0.041824341 0.044951975 255 255 255
-0.030572891 -0.041577041 0.043751419 255 255 255
-0.031017244 -0.041329741 0.042550862 255 255 255
-0.031461656 -0.041082442 0.041350305 255 255 255
-0.019646049 -0.053160548 0.054441988 255 255 255
-0.020812333 -0.052110493 0.053359568 255 255 255
-0.022692025 -0.050262511 0.052417576 255 255 255
-0.02385515 -0.049214303 0.051343739 255 255 255
-0.024303377 -0.048964918 0.05013293 255 255 255
-0.026177406 -0.047119975 0.049206436 255 255 255
-0.027336657 -0.046073914 0.04814297 255 255 255
-0.029206157 -0.044231594 0.047228515 255 255 255
-0.029651225 -0.043983936 0.046026289 255 255 255
-0.030806601 -0.042939961 0.044973195 255 255 255
-0.031251013 -0.042692721 0.043772638 255 255 255
-0.031695426 -0.042445362 0.042572081 255 255 255
-0.032139778 -0.042198122 0.041371524 255 255 255
-0.020333946 -0.054292142 0.054463565 255 255 255
-0.022928178 -0.05163908 0.053651631 255 255 255
-0.023377001 -0.051389337 0.052439034 255 255 255
-0.024539113 -0.05033952 0.051365197 255 255 255
-0.02498734 -0.050090134 0.050154269 255 255 255
-0.026859462 -0.048242033 0.049227774 255 255 255
-0.0280177 -0.047194362 0.048164308 255 255 255
-0.029885292 -0.045348823 0.047249854 255 255 255
-0.0303303 -0.045101166 0.046047509 255 255 255
-0.031484783 -0.044055641 0.044994414 255 255 255
-0.031929195 -0.043808341 0.043793857 255 255 255
-0.032373548 -0.043561041 0.0425933 255 255 255
-0.03281796 -0.043313742 0.041392744 255 255 255
-0.023613095 -0.052765906 0.053673089 255 255 255
-0.024061978 -0.052516162 0.052460492 255 255 255
-0.025223136 -0.051464796 0.051386535 255 255 255
-0.025671303 -0.051215351 0.050175726 255 255 255
-0.027541518 -0.04936403 0.049249113 255 255 255
-0.028698742 -0.04831481 0.048185647 255 255 255
-0.029145062 -0.048066437 0.046979845 255 255 255
-0.031009436 -0.046218395 0.046068847 255 255 255
-0.031454444 -0.045970738 0.044866502 255 255 255
-0.032607317 -0.044923961 0.043815076 255 255 255
-0.033051729 -0.044676661 0.04261452 255 255 255
-0.033496082 -0.044429362 0.041413963 255 255 255
-0.024298072 -0.053892791 0.053694546 255 255 255
-0.024746954 -0.053642988 0.052481949 255 255 255
-0.025907099 -0.052590013 0.051407993 255 255 255
-0.026355326 -0.052340567 0.050197065 255 255 255
-0.028223515 -0.050486088 0.049270451 255 255 255
-0.029379845 -0.049435198 0.048206985 255 255 255
-0.029826105 -0.049186885 0.047001183 255 255 255
-0.031688571 -0.047335625 0.046090066 255 255 255
-0.032133579 -0.047087967 0.044887841 255 255 255
-0.033285439 -0.046039581 0.043836296 255 255 255
-0.033729851 -0.045792282 0.042635739 255 255 255
-0.034174204 -0.045544982 0.041435182 255 255 255
-0.024983048 -0.055019617 0.053715885 255 255 255
-0.025431871 -0.054769814 0.052503288 255 255 255
-0.026591063 -0.053715229 0.051429451 255 255 255
-0.027039289 -0.053465784 0.050218523 255 255 255
-0.029614568 -0.050804019 0.049433887 255 255 255
-0.030060887 -0.050555646 0.048228204 255 255 255
-0.031922638 -0.048700511 0.047313631 255 255 255
-0.032367647 -0.048452854 0.046111286 255 255 255
-0.032812715 -0.048205197 0.04490906 255 255 255
-0.033963621 -0.047155201 0.043857515 255 255 255
-0.034407973 -0.046907902 0.042656958 255 255 255
-0.034852386 -0.046660602 0.041456401 255 255 255
-0.022825599 -0.059375048 0.053196728 255 255 255
-0.023986936 -0.058317065 0.052114069 255 255 255
-0.026565731 -0.055646896 0.051312149 255 255 255
-0.027723312 -0.05459106 0.05023998 255 255 255
-0.03029567 -0.051924407 0.049455225 255 255 255
-0.032156706 -0.050065339 0.048537076 255 255 255
-0.032601774 -0.049817741 0.04733485 255 255 255
-0.033046782 -0.049570084 0.046132505 255 255 255
-0.03419733 -0.048518121 0.045079291 255 255 255
-0.034641743 -0.048270881 0.043878734 255 255 255
-0.035086155 -0.048023522 0.042678177 255 255 255
-0.035530508 -0.047776282 0.041477621 255 255 255
-0.02351445 -0.060508251 0.053218186 255 255 255
-0.024674833 -0.059448659 0.052135646 255 255 255
-0.025833964 -0.058389783 0.051056445 255 255 255
-0.028407276 -0.055716336 0.050261319 255 255 255
-0.030269623 -0.053852201 0.049334466 255 255 255
-0.032835841 -0.051182568 0.048558414 255 255 255
-0.033280849 -0.05093497 0.047356069 255 255 255
-0.0344311 -0.049881041 0.046300948 255 255 255
-0.034875512 -0.049633801 0.04510051 255 255 255
-0.035319865 -0.049386501 0.043899953 255 255 255
-0.035764277 -0.049139202 0.042699397 255 255 255
-0.036208689 -0.048891902 0.04149884 255 255 255
-0.0242033 -0.061641514 0.053239763 255 255 255
-0.02536273 -0.060580313 0.052157104 255 255 255
-0.02581346 -0.060329497 0.050939381 255 255 255
-0.028384447 -0.057650805 0.050142467 255 255 255
-0.030951679 -0.054974258 0.049355805 255 255 255
-0.033514977 -0.052299857 0.048579633 255 255 255
-0.033959985 -0.0520522 0.047377288 255 255 255
-0.035109282 -0.050996721 0.046322167 255 255 255
-0.035553634 -0.050749421 0.045121729 255 255 255
-0.035998046 -0.050502121 0.043921173 255 255 255
-0.036442459 -0.050254822 0.042720616 255 255 255
-0.036886811 -0.050007522 0.041520059 255 255 255
-0.025149047 -0.062213659 0.054614246 255 255 255
-0.025599837 -0.061962783 0.053396404 255 255 255
-0.026050568 -0.061711967 0.052178681 255 255 255
-0.027207792 -0.060649872 0.05109936 255 255 255
-0.029069424 -0.05877763 0.050163805 255 255 255
-0.031633735 -0.056096256 0.049377143 255 255 255
-0.034194112 -0.053417087 0.048600852 255 255 255
-0.03463912 -0.053169429 0.047398627 255 255 255
-0.035787404 -0.052112341 0.046343386 255 255 255
-0.036231816 -0.051865041 0.045142949 255 255 255
-0.036676168 -0.051617742 0.043942392 255 255 255
-0.037120581 -0.051370442 0.042741835 255 255 255
-0.037564933 -0.051123202 0.041541278 255 255 255
-0.026287675 -0.063094437 0.053417981 255 255 255
-0.026738465 -0.062843621 0.052200139 255 255 255
-0.027894735 -0.061779916 0.051120937 255 255 255
-0.030459225 -0.059091985 0.050325572 255 255 255
-0.0330199 -0.0564062 0.04954046 255 255 255
-0.035576761 -0.05372256 0.048765719 255 255 255
-0.036021173 -0.053475261 0.047565162 255 255 255
-0.036465526 -0.053227961 0.046364605 255 255 255
-0.036909938 -0.052980721 0.045164168 255 255 255
-0.03735435 -0.052733362 0.043963611 255 255 255
-0.037798703 -0.052486122 0.042763054 255 255 255
-0.038243115 -0.052238822 0.041562498 255 255 255
-0.026269853 -0.065041244 0.053304493 255 255 255
-0.027426362 -0.063975275 0.052221715 255 255 255
-0.028581619 -0.062909901 0.051142395 255 255 255
-0.031143188 -0.060217202 0.050346911 255 255 255
-0.033700943 -0.057526648 0.049561799 255 255 255
-0.036254942 -0.054838181 0.048786938 255 255 255
-0.036699295 -0.054590881 0.047586381 255 255 255
-0.037143707 -0.054343581 0.046385825 255 255 255
-0.03758806 -0.054096282 0.045185387 255 255 255
-0.038732529 -0.053037047 0.044135273 255 255 255
-0.039176285 -0.052790105 0.042936504 255 255 255
-0.038921237 -0.053354442 0.041583717 255 255 255
-0.026507318 -0.066425681 0.054545462 255 255 255
-0.026958704 -0.066174448 0.053325951 255 255 255
-0.0281142 -0.065106869 0.052243173 255 255 255
-0.029268503 -0.064040005 0.051163852 255 255 255
-0.031827211 -0.061342478 0.050368369 255 255 255
-0.034382045 -0.058647096 0.049583137 255 255 255
-0.036933064 -0.055953801 0.048808157 255 255 255
-0.037377417 -0.055706501 0.047607601 255 255 255
-0.037821829 -0.055459201 0.046407044 255 255 255
-0.038266242 -0.055211961 0.045206606 255 255 255
-0.039409697 -0.054151058 0.044156492 255 255 255
-0.039853454 -0.053904116 0.042957723 255 255 255
-0.039599419 -0.054470062 0.041604936 255 255 255
-0.027900577 -0.066740215 0.054700315 255 255 255
-0.028351307 -0.066489339 0.053482473 255 255 255
-0.029505253 -0.065420508 0.052401483 255 255 255
-0.031360388 -0.063534737 0.051462233 255 255 255
-0.032511175 -0.062467694 0.050389707 255 255 255
-0.035063088 -0.059767485 0.049604475 255 255 255
-0.037611187 -0.05706948 0.048829377 255 255 255
-0.038055599 -0.056822121 0.04762882 255 255 255
-0.038499951 -0.056574881 0.046428263 255 255 255
-0.038944364 -0.056327581 0.045227826 255 255 255
-0.040086865 -0.055265069 0.044177711 255 255 255
-0.040530622 -0.055018127 0.042978942 255 255 255
-0.040277541 -0.055585682 0.041626155 255 255 255
-0.028588414 -0.067871869 0.054721773 255 255 255
-0.029039204 -0.067620993 0.05350405 255 255 255
-0.030192196 -0.066550553 0.052422941 255 255 255
-0.032045364 -0.064661562 0.051483572 255 255 255
-0.033195138 -0.06359297 0.050411165 255 255 255
-0.035744131 -0.060887933 0.049625695 255 255 255
-0.038289368 -0.058185041 0.048850596 255 255 255
-0.038733721 -0.057937801 0.047650039 255 255 255
-0.039178133 -0.057690501 0.046449482 255 255 255
-0.039622486 -0.057443202 0.045249045 255 255 255
-0.040764034 -0.056379139 0.04419893 255 255 255
-0.04120779 -0.056132138 0.043000042 255 255 255
-0.040955663 -0.056701362 0.041647375 255 255 255
-0.028573811 -0.069825351 0.054610193 255 255 255
-0.029727042 -0.068752646 0.053525627 255 255 255
-0.032281458 -0.066038191 0.052717626 255 255 255
-0.032730281 -0.065788448 0.051505029 255 255 255
-0.033879101 -0.064718187 0.050432503 255 255 255
-0.036425233 -0.062008321 0.049647033 255 255 255
-0.03896749 -0.059300721 0.048871815 255 255 255
-0.039411902 -0.059053421 0.047671258 255 255 255
-0.039856255 -0.058806121 0.046470702 255 255 255
-0.040300667 -0.058558881 0.045270264 255 255 255
-0.041441202 -0.05749315 0.04422015 255 255 255
-0.041884959 -0.057246208 0.043021262 255 255 255
-0.042328715 -0.056999266 0.041822493 255 255 255
-0.032966375 -0.067165017 0.052739084 255 255 255
-0.034114897 -0.066092849 0.05166477 255 255 255
-0.035961032 -0.064199269 0.050733984 255 255 255
-0.038502872 -0.06148535 0.049951851 255 255 255
-0.039645672 -0.060416341 0.048893034 255 255 255
-0.040787101 -0.059347987 0.047837794 255 255 255
-0.041230857 -0.059101045 0.046638906 255 255 255
-0.041674614 -0.058854163 0.045440137 255 255 255
-0.042118371 -0.058607161 0.04424125 255 255 255
-0.042562127 -0.058360279 0.043042481 255 255 255
-0.043005884 -0.058113337 0.041843593 255 255 255
-0.033651352 -0.068291843 0.052760541 255 255 255
-0.034798861 -0.067218065 0.051686227 255 255 255
-0.036643088 -0.065321267 0.050755322 255 255 255
-0.039182007 -0.06260258 0.049973071 255 255 255
-0.040323794 -0.061531961 0.048914254 255 255 255
-0.041464269 -0.060462058 0.047858894 255 255 255
-0.041908026 -0.060215056 0.046660125 255 255 255
-0.042351782 -0.059968174 0.045461357 255 255 255
-0.042795539 -0.059721231 0.044262469 255 255 255
-0.043239295 -0.059474289 0.0430637 255 255 255
-0.043683052 -0.059227347 0.041864812 255 255 255
-0.044126809 -0.058980405 0.040666044 255 255 255
-0.032939792 -0.071070731 0.052508891 255 255 255
-0.034785151 -0.069168925 0.051569402 255 255 255
-0.037325084 -0.066443264 0.05077666 255 255 255
-0.039861083 -0.063719809 0.049994409 255 255 255
-0.041001916 -0.062647641 0.048935473 255 255 255
-0.042141438 -0.061576068 0.047880113 255 255 255
-0.042585194 -0.061329126 0.046681345 255 255 255
-0.043028951 -0.061082184 0.045482457 255 255 255
-0.043472707 -0.060835242 0.044283688 255 255 255
-0.043916464 -0.0605883 0.0430848 255 255 255
-0.04436022 -0.060341358 0.041886032 255 255 255
-0.044803977 -0.060094416 0.040687144 255 255 255
-0.032929361 -0.073028326 0.052393854 255 255 255
-0.035470128 -0.070295751 0.051590741 255 255 255
-0.036615074 -0.069219112 0.050518095 255 255 255
-0.039149463 -0.066490114 0.049732268 255 255 255
-0.041680098 -0.063763201 0.048956692 255 255 255
-0.04212445 -0.063515961 0.047756135 255 255 255
-0.042568862 -0.063268661 0.046555579 255 255 255
-0.043013215 -0.063021362 0.045355141 255 255 255
-0.044149876 -0.061949253 0.044304788 255 255 255
-0.044593632 -0.061702311 0.043106019 255 255 255
-0.044346392 -0.062279522 0.041753471 255 255 255
-0.034313619 -0.07333076 0.052551925 255 255 255
-0.036155105 -0.071422637 0.051612198 255 255 255
-0.037299037 -0.070344388 0.050539553 255 255 255
-0.039830506 -0.067610502 0.049753606 255 255 255
-0.04235822 -0.064878881 0.048977911 255 255 255
-0.042802572 -0.064631581 0.047777355 255 255 255
-0.043246984 -0.064384282 0.046576798 255 255 255
-0.043691397 -0.064136982 0.04537636 255 255 255
-0.044135749 -0.063889682 0.044175804 255 255 255
-0.044580162 -0.063642383 0.042975247 255 255 255
-0.045024574 -0.063395083 0.04177469 255 255 255
-0.045468926 -0.063147843 0.040574133 255 255 255
-0.035000503 -0.074460804 0.052573383 255 255 255
-0.036840022 -0.072549462 0.051633656 255 255 255
-0.037983 -0.071469605 0.050560892 255 255 255
-0.040511608 -0.06873095 0.049774945 255 255 255
-0.042343497 -0.0668239 0.048855841 255 255 255
-0.042788565 -0.066576242 0.047653615 255 255 255
-0.043925166 -0.065499961 0.046598017 255 255 255
-0.044369519 -0.065252602 0.04539758 255 255 255
-0.044813931 -0.065005362 0.044197023 255 255 255
-0.045258343 -0.064758062 0.042996466 255 255 255
-0.045702696 -0.064510763 0.041795909 255 255 255
-0.046147108 -0.064263463 0.040595353 255 255 255
-0.035687387 -0.075590849 0.052594841 255 255 255
-0.037524998 -0.073676288 0.051655114 255 255 255
-0.040053248 -0.070931435 0.050862014 255 255 255
-0.042577565 -0.068188727 0.050079405 255 255 255
-0.043022633 -0.067941129 0.04887706 255 255 255
-0.043467641 -0.067693472 0.047674835 255 255 255
-0.043912649 -0.067445815 0.04647249 255 255 255
-0.045047641 -0.066368282 0.045418799 255 255 255
-0.045492053 -0.066120982 0.044218242 255 255 255
-0.045936465 -0.065873682 0.043017685 255 255 255
-0.046380818 -0.065626383 0.041817129 255 255 255
-0.04682523 -0.065379083 0.040616572 255 255 255
-0.040288329 -0.072302163 0.052090824 255 255 255
-0.040735304 -0.072053432 0.050883472 255 255 255
-0.0432567 -0.069306016 0.050100625 255 255 255
-0.043701768 -0.069058359 0.048898399 255 255 255
-0.044146776 -0.068810701 0.047696054 255 255 255
-0.044591784 -0.068563044 0.046493828 255 255 255
-0.045725822 -0.067483902 0.045440018 255 255 255
-0.046170175 -0.067236602 0.044239461 255 255 255
-0.046614587 -0.066989303 0.043038905 255 255 255
-0.047059 -0.066742003 0.041838348 255 255 255
-0.047503352 -0.066494763 0.040637791 255 255 255
-0.040970385 -0.07342422 0.052112162 255 255 255
-0.04141736 -0.07317549 0.050904691 255 255 255
-0.042554796 -0.072092235 0.049838841 255 255 255
-0.043001056 -0.071843922 0.048633158 255 255 255
-0.043447375 -0.07159555 0.047427356 255 255 255
-0.043893695 -0.071347177 0.046221673 255 255 255
-0.044340014 -0.071098864 0.045015991 255 255 255
-0.046160996 -0.069184959 0.044110477 255 255 255
-0.046606004 -0.068937361 0.042908251 255 255 255
-0.045678914 -0.070353806 0.041398823 255 255 255
-0.041652441 -0.074546278 0.052133501 255 255 255
-0.042063594 -0.075222313 0.047013938 255 255 255
-0.042511821 -0.074972868 0.04580301 255 255 255
-0.044334054 -0.073054016 0.044888914 255 255 255
-0.045467377 -0.07197088 0.043831527 255 255 255
-0.045913696 -0.071722567 0.042625844 255 255 255
-0.046359956 -0.071474195 0.041420162 255 255 255
-0.045463085 -0.073927343 0.043702781 255 255 255
-0.046594739 -0.072843015 0.042647183 255 255 255
-0.047041059 -0.072594643 0.0414415 255 255 255
-0.047722101 -0.073715091 0.041462839 255 255 255
0.02909857 0.0045658946 -0.10138124 0 255 0
0.027243674 0.0052189827 -0.093092024 0 255 0
0.026750803 0.0054932237 -0.094423473 0 255 0
0.026257932 0.005767554 -0.095754921 0 255 0
0.026478887 0.0053871274 -0.09740454 0 255 0
0.02598536 0.0056617558 -0.098737776 0 255 0
0.025491893 0.0059363544 -0.10007089 0 255 0
0.024998426 0.0062110126 -0.10140407 0 255 0
0.025553882 0.0050227642 -0.091114402 0 255 0
0.025062323 0.0052962899 -0.092442453 0 255 0
0.024570763 0.005569905 -0.093770444 0 255 0
0.0255059 0.004530251 -0.095731318 0 255 0
0.02501303 0.004804492 -0.097062767 0 255 0
0.024520218 0.005078733 -0.098394275 0 255 0
0.024738848 0.0046975017 -0.10004735 0 255 0
0.024245381 0.0049721003 -0.10138053 0 255 0
0.024846017 0.004288733 -0.086494684 0 255 0
0.02435571 0.0045615435 -0.087819278 0 255 0
0.025295317 0.0035151839 -0.089762926 0 255 0
0.024803758 0.0037887096 -0.091090918 0 255 0
0.024312198 0.0040622354 -0.092418969 0 255 0
0.023820579 0.0043358207 -0.09374696 0 255 0
0.024753809 0.0032929778 -0.095707834 0 255 0
0.024260938 0.0035672188 -0.097039282 0 255 0
0.023768127 0.0038414598 -0.098370731 0 255 0
0.023985803 0.0034586191 -0.10002381 0 255 0
0.023492277 0.0037332177 -0.10135692 0 255 0
0.025078356 0.002512157 -0.083822191 0 255 0
0.023156285 0.0041095614 -0.084538043 0 255 0
0.022667289 0.0043816566 -0.08585912 0 255 0
0.023607492 0.0033306479 -0.087795854 0 255 0
0.023117185 0.003603518 -0.089120388 0 255 0
0.022626936 0.0038763285 -0.090444982 0 255 0
0.022136629 0.0041491985 -0.091769516 0 255 0
0.023070455 0.0031017065 -0.093723476 0 255 0
0.024001718 0.0020557046 -0.09568429 0 255 0
0.023508847 0.0023299456 -0.097015738 0 255 0
0.023726165 0.0019450784 -0.098667085 0 255 0
0.023232698 0.0022197366 -0.1000002 0 255 0
0.022739232 0.0024943352 -0.10133338 0 255 0
0.024820507 0.001008451 -0.082474172 0 255 0
0.022899091 0.0026097298 -0.0831936 0 255 0
0.022410035 0.0028818846 -0.084514678 0 255 0
0.021921039 0.0031539798 -0.085835814 0 255 0
0.021431983 0.0034261346 -0.087156951 0 255 0
0.022369027 0.0023726225 -0.089096963 0 255 0
0.021878719 0.0026454329 -0.090421557 0 255 0
0.021388412 0.002918303 -0.091746151 0 255 0
0.020898104 0.0031911731 -0.093070686 0 255 0
0.021828771 0.0021411777 -0.095027983 0 255 0
0.022756755 0.0010926723 -0.096992195 0 255 0
0.022263944 0.0013669133 -0.098323643 0 255 0
0.022479653 0.00098079443 -0.099976659 0 255 0
0.021986187 0.0012554526 -0.10130984 0 255 0
0.024072289 -0.00022244453 -0.082450807 0 255 0
0.022152841 0.0013820529 -0.083170235 0 255 0
0.021663785 0.0016542077 -0.084491313 0 255 0
0.021174788 0.0019263625 -0.085812449 0 255 0
0.020685732 0.0021984577 -0.087133586 0 255 0
0.020196736 0.0024706125 -0.088454664 0 255 0
0.019707739 0.0027427077 -0.089775801 0 255 0
0.019218683 0.0030148625 -0.091096938 0 255 0
0.020149887 0.0019602776 -0.093047261 0 255 0
0.019659638 0.002233088 -0.094371855 0 255 0
0.020587027 0.0011806488 -0.09633255 0 255 0
0.021511853 0.0001296401 -0.098300159 0 255 0
0.021018982 0.00040388107 -0.099631608 0 255 0
0.021233141 1.6570091e-05 -0.10128623 0 255 0
0.021895587 -0.00011771917 -0.081825793 0 255 0
0.021406591 0.00015443563 -0.08314687 0 255 0
0.020204544 0.001093626 -0.084163725 0 255 0
0.019716144 0.0013654232 -0.085483134 0 255 0
0.019939482 0.00097078085 -0.087110221 0 255 0
0.019450486 0.0012429357 -0.088431299 0 255 0
0.018961489 0.0015150309 -0.089752436 0 255 0
0.018472433 0.0017871857 -0.091073573 0 255 0
0.019401729 0.00072938204 -0.093023837 0 255 0
0.018911421 0.0010021925 -0.094348431 0 255 0
0.019836903 -5.3405762e-05 -0.096309066 0 255 0
0.020759761 -0.0011076331 -0.098276556 0 255 0
0.020266891 -0.00083339214 -0.099608004 0 255 0
0.020480037 -0.0012223125 -0.10126275 0 255 0
0.020435989 -0.00067597628 -0.081501603 0 255 0
0.019947648 -0.0004041791 -0.082821012 0 255 0
0.019459248 -0.00013244152 -0.08414036 0 255 0
0.018970847 0.00013935566 -0.085459769 0 255 0
0.019193232 -0.00025689602 -0.087086856 0 255 0
0.018704236 1.5258789e-05 -0.088407993 0 255 0
0.018215239 0.00028735399 -0.08972913 0 255 0
0.017726183 0.0005595088 -0.091050208 0 255 0
0.017237186 0.000831604 -0.092371345 0 255 0
0.018163264 -0.00022864342 -0.094325006 0 255 0
0.019086719 -0.0012875199 -0.096285582 0 255 0
0.02000767 -0.0023449063 -0.098253071 0 255 0
0.019514799 -0.0020706654 -0.09958452 0 255 0
0.019726992 -0.002461195 -0.10123914 0 255 0
0.01875329 -0.00083112717 -0.079560816 0 255 0
0.018266201 -0.00056010485 -0.080876768 0 255 0
0.019202352 -0.0016302466 -0.082797706 0 255 0
0.018713951 -0.0013585091 -0.084117055 0 255 0
0.01822561 -0.0010867715 -0.085436463 0 255 0
0.01773721 -0.00081497431 -0.086755872 0 255 0
0.017248809 -0.00054317713 -0.088075221 0 255 0
0.017468929 -0.00094032288 -0.089705765 0 255 0
0.016979933 -0.00066822767 -0.091026843 0 255 0
0.016490936 -0.00039607286 -0.09234798 0 255 0
0.017415047 -0.0014595389 -0.094301581 0 255 0
0.018336594 -0.0025215745 -0.096262157 0 255 0
0.019255579 -0.0035821795 -0.098229527 0 255 0
0.018762708 -0.0033079386 -0.099560976 0 255 0
0.018973947 -0.0037000775 -0.10121554 0 255 0
0.0094297528 0.016835511 0.010625899 0 255 0
0.0089751482 0.017088473 0.0093978047 0 255 0
0.0092701316 0.016647547 0.0079723001 0 255 0
0.011061788 0.014820307 0.0061451793 0 255 0
0.018009961 -0.0020540357 -0.07953757 0 255 0
0.017522871 -0.0017829537 -0.080853522 0 255 0
0.018457055 -0.0028563142 -0.082774341 0 255 0
0.017968714 -0.0025845766 -0.08409375 0 255 0
0.017480314 -0.002312839 -0.085413158 0 255 0
0.016991913 -0.0020410419 -0.086732566 0 255 0
0.016503572 -0.0017692447 -0.088051915 0 255 0
0.016722679 -0.0021679997 -0.0896824 0 255 0
0.016233683 -0.0018958449 -0.091003478 0 255 0
0.017157137 -0.0029632449 -0.092953622 0 255 0
0.01666683 -0.0026903749 -0.094278157 0 255 0
0.016176522 -0.0024175644 -0.095602751 0 255 0
0.018503487 -0.0048195124 -0.098205984 0 255 0
0.018010616 -0.0045452714 -0.099537432 0 255 0
0.018220842 -0.0049389601 -0.10119206 0 255 0
0.0082971454 0.01677528 0.01612103 0 255 0
0.0078444481 0.017027169 0.014898121 0 255 0
0.0081429482 0.016582102 0.013484716 0 255 0
0.0076896548 0.016834378 0.01226002 0 255 0
0.0087360144 0.015694261 0.010647595 0 255 0
0.0090306997 0.015251428 0.0092238784 0 255 0
0.0085754395 0.015504748 0.0079940557 0 255 0
0.0096162558 0.014367789 0.0063660741 0 255 0
0.0091597438 0.014621824 0.0051327944 0 255 0
0.017711818 -0.0040824413 -0.082751036 0 255 0
0.017223418 -0.0038106441 -0.084070444 0 255 0
0.016735017 -0.0035389066 -0.085389853 0 255 0
0.016954482 -0.0039399266 -0.087016821 0 255 0
0.016465485 -0.0036677718 -0.088337958 0 255 0
0.015976429 -0.0033956766 -0.089659035 0 255 0
0.015487432 -0.0031235218 -0.090980172 0 255 0
0.01640892 -0.0041940808 -0.092930198 0 255 0
0.015918672 -0.0039212704 -0.094254792 0 255 0
0.015428364 -0.0036484599 -0.095579326 0 255 0
0.017751396 -0.0060567856 -0.098182499 0 255 0
0.017258525 -0.0057825446 -0.099513948 0 255 0
0.017467797 -0.0061778426 -0.10116845 0 255 0
0.005802691 0.017485589 0.017921388 0 255 0
0.0061033964 0.017037213 0.016516626 0 255 0
0.0071536303 0.015890747 0.014919698 0 255 0
0.0067009926 0.016142637 0.01369679 0 255 0
0.0069978833 0.015696347 0.012281716 0 255 0
0.0080423355 0.01455304 0.010669291 0 255 0
0.0083360076 0.014108568 0.0092455745 0 255 0
0.0078807473 0.014361888 0.0080158114 0 255 0
0.0089195967 0.013221741 0.0063878894 0 255 0
0.0084630847 0.013475776 0.0051546097 0 255 0
0.016478121 -0.0050367117 -0.084047139 0 255 0
0.01598978 -0.0047649741 -0.085366547 0 255 0
0.016208231 -0.0051676035 -0.086993456 0 255 0
0.015719235 -0.0048955083 -0.088314593 0 255 0
0.015230179 -0.0046233535 -0.08963567 0 255 0
0.014741182 -0.0043511987 -0.090956807 0 255 0
0.015660703 -0.0054249763 -0.092906773 0 255 0
0.016577721 -0.0064973831 -0.094863713 0 255 0
0.016086161 -0.0062238574 -0.096191704 0 255 0
0.016999304 -0.0072940588 -0.098158896 0 255 0
0.017208219 -0.0076913238 -0.099811733 0 255 0
0.016714752 -0.0074167252 -0.10114485 0 255 0
0.0048137903 0.016804665 0.019344151 0 255 0
0.0051148534 0.016353935 0.017942905 0 255 0
0.0054145455 0.01590398 0.016538203 0 255 0
0.006462872 0.014754266 0.014941335 0 255 0
0.0060101748 0.015006185 0.013718426 0 255 0
0.0063061118 0.014558285 0.012303352 0 255 0
0.007348597 0.01341179 0.010691047 0 255 0
0.0076413155 0.012965709 0.0092673302 0 255 0
0.0071860552 0.013219029 0.0080375075 0 255 0
0.0082229972 0.012075692 0.0064096451 0 255 0
0.017364025 -0.0080200434 -0.086260617 0 255 0
0.016873717 -0.0077472329 -0.087585151 0 255 0
0.01638341 -0.0074743629 -0.088909686 0 255 0
0.015893161 -0.0072015524 -0.09023428 0 255 0
0.015402853 -0.0069286823 -0.091558814 0 255 0
0.016319156 -0.0080049634 -0.093512237 0 255 0
0.015827596 -0.0077314377 -0.094840229 0 255 0
0.015336037 -0.007457912 -0.09616822 0 255 0
0.01694864 -0.0092048049 -0.098455012 0 255 0
0.016455173 -0.0089302063 -0.099788129 0 255 0
0.015961707 -0.0086556077 -0.10112137 0 255 0
0.0030742288 0.01683113 0.020945191 0 255 0
0.0041269064 0.015674621 0.019365668 0 255 0
0.0036767721 0.015925109 0.018149614 0 255 0
0.0039761662 0.015473157 0.01674664 0 255 0
0.0057720542 0.013617843 0.014962971 0 255 0
0.0060676336 0.013168007 0.013549685 0 255 0
0.0071095228 0.012017578 0.011940837 0 255 0
0.0066549182 0.01227054 0.010712743 0 255 0
0.0069466233 0.011822909 0.0092890859 0 255 0
0.006491363 0.012076229 0.0080592632 0 255 0
0.0075263381 0.010929674 0.0064314604 0 255 0
0.016060591 -0.0095126033 -0.092160761 0 255 0
0.015569031 -0.0092390776 -0.093488753 0 255 0
0.015077472 -0.0089655519 -0.094816744 0 255 0
0.015987933 -0.010042846 -0.096780419 0 255 0
0.016195595 -0.010443687 -0.098431408 0 255 0
0.015702069 -0.010169089 -0.099764585 0 255 0
0.015208602 -0.0098944902 -0.10109776 0 255 0
0.0023892522 0.015704244 0.020966649 0 255 0
0.0034400225 0.014544576 0.019387186 0 255 0
0.0029898882 0.014795095 0.018171132 0 255 0
0.0032883286 0.014341503 0.016768157 0 255 0
0.0050812364 0.012481391 0.014984548 0 255 0
0.0046285987 0.01273331 0.01376164 0 255 0
0.0049225688 0.012282223 0.012346625 0 255 0
0.0044692755 0.012534469 0.011121988 0 255 0
0.0055065751 0.011382252 0.0095063448 0 255 0
0.0057967305 0.010933369 0.0080810189 0 255 0
0.0068297386 0.0097835958 0.0064532757 0 255 0
0.015310466 -0.010746658 -0.092137277 0 255 0
