ply
format ascii 1.0
comment PCL generated
element vertex 1109
property float x
property float y
property float z
property uchar red
property uchar green
property uchar blue
element camera 0
property float view_px
property float view_py
property float view_pz
property float x_axisx
property float x_axisy
property float x_axisz
property float y_axisx
property float y_axisy
property float y_axisz
property float z_axisx
property float z_axisy
property float z_axisz
property float focal
property float scalex
property float scaley
property float centerx
property float centery
property int viewportx
property int viewporty
property float k1
property float k2
end_header
0.5300501 -0.072662398 0.93969131 0 255 0
0.53070682 -0.072773814 0.93845415 0 255 0
0.53040719 -0.072715081 0.93746972 0 255 0
0.5310623 -0.072826169 0.9362272 0 255 0
0.53171629 -0.072937049 0.93498111 0 255 0
0.53046191 -0.072708488 0.93425471 0 255 0
0.53016174 -0.07264965 0.93326849 0 255 0
0.52986157 -0.072590813 0.93228227 0 255 0
0.52956134 -0.072531968 0.93129605 0 255 0
0.52926117 -0.072473124 0.93030977 0 255 0
0.528961 -0.072414286 0.92932355 0 255 0
0.52866077 -0.072355449 0.92833734 0 255 0
0.52836061 -0.072296605 0.92735112 0 255 0
0.52806044 -0.07223776 0.9263649 0 255 0
0.52870899 -0.072347581 0.92510092 0 255 0
0.52840829 -0.072288632 0.92411292 0 255 0
0.57105947 -0.081302196 0.97686225 0 255 0
0.57172334 -0.08141692 0.97565013 0 255 0
0.57140791 -0.081355095 0.9746139 0 255 0
0.57109249 -0.08129327 0.97357762 0 255 0
0.5539692 -0.078168035 0.96822047 0 255 0
0.55268919 -0.077932537 0.96740836 0 255 0
0.55043793 -0.077522084 0.9667989 0 255 0
0.55013233 -0.077462181 0.9657948 0 255 0
0.54982668 -0.077402279 0.9647907 0 255 0
0.54855049 -0.077167526 0.96399105 0 255 0
0.54727536 -0.076932997 0.96319497 0 255 0
0.54697078 -0.076873302 0.96219444 0 255 0
0.54569727 -0.076639086 0.96140379 0 255 0
0.54442489 -0.076405093 0.96061665 0 255 0
0.54315346 -0.076171294 0.95983309 0 255 0
0.54091591 -0.075763516 0.95926827 0 255 0
0.53964728 -0.075530246 0.95849371 0 255 0
0.53837973 -0.075297199 0.95772266 0 255 0
0.53711331 -0.075064369 0.95695513 0 255 0
0.53584796 -0.074831754 0.95619124 0 255 0
0.53458369 -0.074599355 0.95543092 0 255 0
0.53428459 -0.074540727 0.95444828 0 255 0
0.5339855 -0.074482098 0.95346558 0 255 0
0.5336864 -0.074423477 0.95248294 0 255 0
0.5333873 -0.074364841 0.9515003 0 255 0
0.53308821 -0.07430622 0.95051765 0 255 0
0.53278911 -0.074247591 0.94953501 0 255 0
0.53249002 -0.074188963 0.94855231 0 255 0
0.53219092 -0.074130341 0.94756967 0 255 0
0.53189176 -0.074071705 0.94658703 0 255 0
0.53159267 -0.074013084 0.94560438 0 255 0
0.53129357 -0.073954456 0.94462168 0 255 0
0.53099447 -0.073895827 0.94363904 0 255 0
0.53069538 -0.073837198 0.9426564 0 255 0
0.53039628 -0.07377857 0.94167376 0 255 0
0.53009719 -0.073719949 0.94069111 0 255 0
0.53075403 -0.073833272 0.93945575 0 255 0
0.5304544 -0.073774546 0.93847132 0 255 0
0.53015471 -0.073715806 0.93748689 0 255 0
0.53080934 -0.073828712 0.93624437 0 255 0
0.53146291 -0.07394141 0.93499827 0 255 0
0.530209 -0.073711038 0.93427193 0 255 0
0.52990878 -0.073652193 0.93328565 0 255 0
0.52960861 -0.073593356 0.93229944 0 255 0
0.52930844 -0.073534518 0.93131322 0 255 0
0.52995926 -0.07364668 0.93005824 0 255 0
0.52870804 -0.073416829 0.92934072 0 255 0
0.52840787 -0.073357992 0.9283545 0 255 0
0.5281077 -0.073299155 0.92736828 0 255 0
0.52875632 -0.073410884 0.92610615 0 255 0
0.52845562 -0.073351942 0.92511815 0 255 0
0.52815485 -0.073292993 0.92413014 0 255 0
0.57275182 -0.082710505 0.97652858 0 255 0
0.57243586 -0.082648575 0.97549057 0 255 0
0.57211989 -0.082586646 0.9744525 0 255 0
0.57180393 -0.082524717 0.97341448 0 255 0
0.55371034 -0.079194188 0.96823812 0 255 0
0.55243075 -0.07895688 0.96742588 0 255 0
0.55115229 -0.07871978 0.96661729 0 255 0
0.54987478 -0.078482896 0.96581227 0 255 0
0.54956919 -0.078422986 0.96480817 0 255 0
0.54829341 -0.078186423 0.96400851 0 255 0
0.54798836 -0.078126624 0.9630062 0 255 0
0.54671419 -0.077890381 0.96221191 0 255 0
0.54544115 -0.077654347 0.96142119 0 255 0
0.54416919 -0.077418536 0.96063399 0 255 0
0.54096341 -0.07683067 0.96027714 0 255 0
0.54066163 -0.076771513 0.95928556 0 255 0
0.53939348 -0.076536432 0.95851088 0 255 0
0.53812635 -0.07630156 0.95773983 0 255 0
0.53686035 -0.076066919 0.9569723 0 255 0
0.53559548 -0.075832486 0.95620841 0 255 0
0.53529584 -0.075773761 0.95522398 0 255 0
0.53403258 -0.075539641 0.95446539 0 255 0
0.53373349 -0.075481012 0.95348275 0 255 0
0.53343439 -0.075422391 0.95250005 0 255 0
0.53313529 -0.075363755 0.9515174 0 255 0
0.5328362 -0.075305134 0.95053476 0 255 0
0.5325371 -0.075246505 0.94955206 0 255 0
0.53319836 -0.075362623 0.94833285 0 255 0
0.53289866 -0.075303882 0.94734842 0 255 0
0.53163975 -0.07507062 0.94660413 0 255 0
0.53134066 -0.075011998 0.94562149 0 255 0
0.53104156 -0.07495337 0.94463885 0 255 0
0.53074247 -0.074894741 0.94365615 0 255 0
0.53044337 -0.074836113 0.9426735 0 255 0
0.53110081 -0.074951485 0.94144177 0 255 0
0.53080118 -0.074892744 0.94045734 0 255 0
0.53050154 -0.074834011 0.93947291 0 255 0
0.53020191 -0.074775279 0.93848842 0 255 0
0.53085661 -0.074890107 0.93724775 0 255 0
0.53055644 -0.074831262 0.93626153 0 255 0
0.53120953 -0.074945778 0.9350155 0 255 0
0.53090882 -0.074886829 0.93402749 0 255 0
0.53060806 -0.07482788 0.93303943 0 255 0
0.53030735 -0.074768931 0.93205142 0 255 0
0.53000659 -0.074709982 0.93106341 0 255 0
0.52970588 -0.074651033 0.93007541 0 255 0
0.52940512 -0.074592091 0.9290874 0 255 0
0.52815497 -0.074360542 0.92837167 0 255 0
0.52785474 -0.074301705 0.92738545 0 255 0
0.52850294 -0.074415252 0.92612338 0 255 0
0.52820224 -0.074356303 0.92513537 0 255 0
0.52790147 -0.074297354 0.92414731 0 255 0
0.55345142 -0.080220342 0.96825564 0 255 0
0.55314416 -0.080160119 0.96724617 0 255 0
0.55186558 -0.079921097 0.96643579 0 255 0
0.54961729 -0.079503596 0.96582979 0 255 0
0.5493117 -0.079443693 0.96482569 0 255 0
0.54803634 -0.079205319 0.96402597 0 255 0
0.54773128 -0.079145521 0.96302366 0 255 0
0.54645759 -0.07890746 0.96222931 0 255 0
0.54518503 -0.078669608 0.96143854 0 255 0
0.54488105 -0.078610025 0.9604398 0 255 0
0.54070914 -0.077838674 0.96029443 0 255 0
0.5404073 -0.077779517 0.95930284 0 255 0
0.53913963 -0.07754261 0.95852816 0 255 0
0.53787297 -0.077305928 0.95775706 0 255 0
0.53660744 -0.077069461 0.95698953 0 255 0
0.53534299 -0.076833218 0.95622551 0 255 0
0.53504336 -0.076774485 0.95524108 0 255 0
0.53378057 -0.076538563 0.9544825 0 255 0
0.53348148 -0.076479934 0.95349979 0 255 0
0.53318238 -0.076421306 0.95251715 0 255 0
0.53288329 -0.076362677 0.95153451 0 255 0
0.53354514 -0.076480813 0.95031887 0 255 0
0.5332455 -0.07642208 0.94933444 0 255 0
0.53294587 -0.076363347 0.94835001 0 255 0
0.53264624 -0.076304615 0.94736552 0 255 0
0.53138775 -0.076069541 0.94662124 0 255 0
0.53108865 -0.076010913 0.9456386 0 255 0
0.53078955 -0.075952284 0.9446559 0 255 0
0.53049046 -0.075893655 0.94367325 0 255 0
0.53114802 -0.076010942 0.94244337 0 255 0
0.53084832 -0.07595221 0.94145894 0 255 0
0.53054869 -0.075893477 0.94047445 0 255 0
0.53024906 -0.075834736 0.93949002 0 255 0
0.52994943 -0.075776011 0.93850559 0 255 0
0.53060371 -0.075892657 0.93726492 0 255 0
0.53030348 -0.075833812 0.9362787 0 255 0
0.53095615 -0.075950138 0.93503273 0 255 0
0.53065538 -0.075891189 0.93404466 0 255 0
0.53035468 -0.075832248 0.93305665 0 255 0
0.53005397 -0.075773299 0.93206865 0 255 0
0.52975321 -0.07571435 0.93108064 0 255 0
0.5294525 -0.075655401 0.93009263 0 255 0
0.52915174 -0.075596452 0.92910463 0 255 0
0.52885103 -0.075537503 0.92811656 0 255 0
0.52855027 -0.075478561 0.92712855 0 255 0
0.52824956 -0.075419612 0.92614055 0 255 0
0.52794886 -0.075360671 0.92515254 0 255 0
0.52764809 -0.075301722 0.92416453 0 255 0
0.55769926 -0.082091108 0.96952468 0 255 0
0.5573898 -0.082030453 0.96850812 0 255 0
0.55319256 -0.08124651 0.96827322 0 255 0
0.55288529 -0.08118628 0.96726376 0 255 0
0.55257803 -0.081126049 0.96625435 0 255 0
0.55033016 -0.080704823 0.96564645 0 255 0
0.54905415 -0.080464408 0.96484315 0 255 0
0.54777932 -0.080224209 0.96404344 0 255 0
0.54650557 -0.079984233 0.96324724 0 255 0
0.54620099 -0.079924539 0.96224678 0 255 0
0.54589647 -0.079864845 0.96124625 0 255 0
0.54559195 -0.079805151 0.96024573 0 255 0
0.54142129 -0.079026423 0.96009839 0 255 0
0.53918701 -0.078607842 0.95953518 0 255 0
0.53888577 -0.078548789 0.95854539 0 255 0
0.53761953 -0.078310296 0.95777422 0 255 0
0.53635448 -0.078072011 0.95700669 0 255 0
0.53509051 -0.077833951 0.95624268 0 255 0
0.53479087 -0.077775218 0.95525825 0 255 0
0.53449124 -0.077716485 0.95427382 0 255 0
0.53419161 -0.077657744 0.95328933 0 255 0
0.53293037 -0.07742022 0.95253426 0 255 0
0.53263122 -0.077361591 0.95155162 0 255 0
0.53329265 -0.077481546 0.95033604 0 255 0
0.53299302 -0.077422813 0.94935155 0 255 0
0.53365284 -0.077542454 0.94813061 0 255 0
0.53239375 -0.077305347 0.94738269 0 255 0
0.53209412 -0.077246606 0.94639826 0 255 0
0.53083664 -0.077009827 0.9456557 0 255 0
0.53053755 -0.076951198 0.94467306 0 255 0
0.53119516 -0.077070408 0.94344497 0 255 0
0.53089553 -0.077011675 0.94246048 0 255 0
0.5305959 -0.076952942 0.94147605 0 255 0
0.53029621 -0.076894209 0.94049162 0 255 0
0.52999657 -0.076835468 0.93950719 0 255 0
0.52969694 -0.076776743 0.9385227 0 255 0
0.53035074 -0.076895207 0.93728209 0 255 0
0.53005058 -0.076836362 0.93629587 0 255 0
0.53070277 -0.076954506 0.93504989 0 255 0
0.530402 -0.076895557 0.93406188 0 255 0
0.5301013 -0.076836616 0.93307388 0 255 0
0.52980053 -0.076777667 0.93208587 0 255 0
0.52949983 -0.076718718 0.93109787 0 255 0
0.52919912 -0.076659769 0.93010986 0 255 0
0.52889836 -0.07660082 0.92912179 0 255 0
0.52859765 -0.076541871 0.92813379 0 255 0
0.52829689 -0.076482929 0.92714578 0 255 0
0.52799618 -0.07642398 0.92615777 0 255 0
0.52769542 -0.076365039 0.92516977 0 255 0
0.52739471 -0.07630609 0.9241817 0 255 0
0.56744909 -0.085016668 0.97194666 0 255 0
0.56616056 -0.084771886 0.97110045 0 255 0
0.56487304 -0.084527306 0.97025782 0 255 0
0.56358671 -0.08428295 0.96941876 0 255 0
0.55743849 -0.083124533 0.96954238 0 255 0
0.55712909 -0.083063878 0.96852577 0 255 0
0.55584818 -0.082820579 0.96770459 0 255 0
0.55262637 -0.082212441 0.96728134 0 255 0
0.55231917 -0.082152218 0.96627188 0 255 0
0.55201191 -0.082091987 0.96526241 0 255 0
0.54879665 -0.081485115 0.96486062 0 255 0
0.54752225 -0.081243098 0.9640609 0 255 0
0.54624897 -0.081001312 0.9632647 0 255 0
0.54594439 -0.080941617 0.96226418 0 255 0
0.54563987 -0.080881923 0.96126366 0 255 0
0.54533535 -0.080822229 0.96026313 0 255 0
0.54503083 -0.080762535 0.95926261 0 255 0
0.53796762 -0.079432547 0.95976746 0 255 0
0.53766692 -0.079373598 0.95877945 0 255 0
0.53640175 -0.079133406 0.95801008 0 255 0
0.53610158 -0.079074562 0.95702386 0 255 0
0.53580141 -0.079015717 0.95603764 0 255 0
0.53550118 -0.07895688 0.95505136 0 255 0
0.53520101 -0.078898042 0.95406514 0 255 0
0.53490084 -0.078839198 0.95307893 0 255 0
0.53363949 -0.078599751 0.95232207 0 255 0
0.53333986 -0.078541018 0.95133758 0 255 0
0.53400028 -0.078662679 0.95012021 0 255 0
0.53370005 -0.078603834 0.94913399 0 255 0
0.53339988 -0.078544997 0.94814777 0 255 0
0.53309971 -0.078486159 0.94716156 0 255 0
0.53184164 -0.078247346 0.94641542 0 255 0
0.531542 -0.078188613 0.94543099 0 255 0
0.53124231 -0.07812988 0.9444465 0 255 0
0.53094268 -0.078071147 0.94346207 0 255 0
0.53064305 -0.078012407 0.94247764 0 255 0
0.53034341 -0.077953681 0.94149315 0 255 0
0.53004378 -0.077894941 0.94050872 0 255 0
0.52974415 -0.077836208 0.93952429 0 255 0
0.52944446 -0.077777475 0.93853986 0 255 0
0.53009784 -0.07789775 0.93729925 0 255 0
0.52979761 -0.077838913 0.93631303 0 255 0
0.53044939 -0.077958867 0.93506712 0 255 0
0.53014863 -0.077899918 0.93407905 0 255 0
0.52984792 -0.077840976 0.93309104 0 255 0
0.52954715 -0.077782027 0.93210304 0 255 0
0.52924645 -0.077723086 0.93111503 0 255 0
0.52894568 -0.077664137 0.93012702 0 255 0
0.52864498 -0.077605188 0.92913902 0 255 0
0.52834427 -0.077546239 0.92815101 0 255 0
0.52804351 -0.07748729 0.927163 0 255 0
0.5277428 -0.077428341 0.926175 0 255 0
0.52744204 -0.077369399 0.92518693 0 255 0
0.52714133 -0.07731045 0.92419893 0 255 0
0.56554884 -0.085757643 0.97336304 0 255 0
0.56523561 -0.085696243 0.97233397 0 255 0
0.56394863 -0.085449859 0.97149128 0 255 0
0.56363595 -0.085388564 0.97046399 0 255 0
0.56332326 -0.085327275 0.96943665 0 255 0
0.56203842 -0.085081309 0.96860111 0 255 0
0.55686837 -0.084097296 0.96854353 0 255 0
0.55558789 -0.083852194 0.9677223 0 255 0
0.55430847 -0.083607294 0.96690464 0 255 0
0.55400014 -0.083546855 0.9658916 0 255 0
0.5536918 -0.083486415 0.96487856 0 255 0
0.5485391 -0.082505822 0.96487814 0 255 0
0.54726517 -0.082261994 0.96407831 0 255 0
0.54696012 -0.082202196 0.963076 0 255 0
0.54665506 -0.082142398 0.96207368 0 255 0
0.54634994 -0.082082599 0.96107137 0 255 0
0.54507875 -0.081839301 0.96028054 0 255 0
0.54477417 -0.081779607 0.95928001 0 255 0
0.53771424 -0.080436915 0.95978469 0 255 0
0.53741354 -0.080377966 0.95879668 0 255 0
0.53518486 -0.079952881 0.95824587 0 255 0
0.53488523 -0.07989414 0.95726138 0 255 0
0.53554845 -0.080018267 0.95605481 0 255 0
0.53524828 -0.07995943 0.95506853 0 255 0
0.53494805 -0.079900585 0.95408231 0 255 0
0.53464788 -0.079841748 0.95309609 0 255 0
0.53338701 -0.079600476 0.95233917 0 255 0
0.53308737 -0.079541743 0.95135474 0 255 0
0.53374732 -0.079665229 0.95013738 0 255 0
0.53344715 -0.079606384 0.94915116 0 255 0
0.53314698 -0.079547539 0.94816494 0 255 0
0.53284675 -0.079488702 0.94717872 0 255 0
0.53158915 -0.079248071 0.94643253 0 255 0
0.53128952 -0.079189338 0.9454481 0 255 0
0.53098989 -0.079130605 0.94446367 0 255 0
0.53069019 -0.079071864 0.94347918 0 255 0
0.53039056 -0.079013139 0.94249475 0 255 0
0.53009093 -0.078954399 0.94151032 0 255 0
0.5297913 -0.078895666 0.94052589 0 255 0
0.52949166 -0.078836933 0.93954146 0 255 0
0.53014511 -0.078959137 0.93830264 0 255 0
0.52984488 -0.078900293 0.93731642 0 255 0
0.53049672 -0.079022177 0.93607235 0 255 0
0.53019595 -0.078963235 0.93508434 0 255 0
0.52989525 -0.078904286 0.93409628 0 255 0
0.52959454 -0.078845337 0.93310827 0 255 0
0.52929378 -0.078786388 0.93212026 0 255 0
0.52899307 -0.078727439 0.93113226 0 255 0
0.52869231 -0.07866849 0.93014425 0 255 0
0.5283916 -0.078609549 0.92915618 0 255 0
0.52809083 -0.0785506 0.92816818 0 255 0
0.52779013 -0.078491658 0.92718017 0 255 0
0.52748942 -0.078432709 0.92619216 0 255 0
0.52813476 -0.078553319 0.92492658 0 255 0
0.56528491 -0.086803779 0.97338098 0 255 0
0.56497169 -0.086742386 0.97235185 0 255 0
0.56368518 -0.086494178 0.97150916 0 255 0
0.56337243 -0.086432882 0.97048187 0 255 0
0.56305975 -0.086371593 0.96945453 0 255 0
0.56177539 -0.086123817 0.96861899 0 255 0
0.55952102 -0.08568988 0.9679805 0 255 0
0.55532765 -0.084883802 0.96773994 0 255 0
0.55404866 -0.084637083 0.96692228 0 255 0
0.55374032 -0.084576644 0.96590924 0 255 0
0.55343199 -0.084516205 0.9648962 0 255 0
0.54828161 -0.083526529 0.96489561 0 255 0
0.54700816 -0.083280891 0.96409577 0 255 0
0.54670304 -0.083221093 0.96309346 0 255 0
0.54639798 -0.083161294 0.96209115 0 255 0
0.54609293 -0.083101496 0.96108884 0 255 0
0.54578781 -0.08304169 0.96008652 0 255 0
0.54548275 -0.082981892 0.95908427 0 255 0
0.53746086 -0.081441268 0.95980191 0 255 0
0.5371601 -0.081382319 0.95881385 0 255 0
0.53493237 -0.080953613 0.95826298 0 255 0
0.53463274 -0.08089488 0.95727855 0 255 0
0.53529555 -0.081020817 0.95607197 0 255 0
0.53499532 -0.08096198 0.95508575 0 255 0
0.53469515 -0.080903135 0.95409948 0 255 0
0.53439498 -0.080844298 0.95311326 0 255 0
0.53409475 -0.080785453 0.95212704 0 255 0
0.53379458 -0.080726616 0.95114082 0 255 0
0.53349441 -0.080667779 0.9501546 0 255 0
0.53415281 -0.080792852 0.94893372 0 255 0
0.5338521 -0.080733903 0.94794571 0 255 0
0.53355134 -0.080674961 0.94695771 0 255 0
0.53229368 -0.080432415 0.94620967 0 255 0
0.53199345 -0.08037357 0.94522345 0 255 0
0.53264916 -0.080498114 0.94399363 0 255 0
0.53234845 -0.080439165 0.94300562 0 255 0
0.53204769 -0.080380224 0.94201761 0 255 0
0.53174698 -0.080321275 0.94102961 0 255 0
0.53049254 -0.080079369 0.9402923 0 255 0
0.53019232 -0.080020532 0.93930608 0 255 0
0.53084475 -0.080144435 0.93806553 0 255 0
0.53054404 -0.080085486 0.93707752 0 255 0
0.53024334 -0.080026537 0.93608952 0 255 0
0.52994257 -0.079967588 0.93510151 0 255 0
0.52964187 -0.079908647 0.9341135 0 255 0
0.5293411 -0.079849698 0.9331255 0 255 0
0.5290404 -0.079790749 0.93213749 0 255 0
0.52873969 -0.079731807 0.93114948 0 255 0
0.52843893 -0.079672858 0.93016142 0 255 0
0.52813822 -0.079613909 0.92917341 0 255 0
0.52878469 -0.079736665 0.92791325 0 255 0
0.52848345 -0.079677604 0.92692345 0 255 0
0.52818215 -0.079618551 0.9259336 0 255 0
0.52788091 -0.079559498 0.9249438 0 255 0
0.56502098 -0.087849915 0.97339892 0 255 0
0.56470776 -0.087788515 0.97236979 0 255 0
0.56342167 -0.087538496 0.97152704 0 255 0
0.56310898 -0.0874772 0.97049975 0 255 0
0.56279629 -0.087415911 0.96947241 0 255 0
0.56151241 -0.087166317 0.96863681 0 255 0
0.55925894 -0.086728752 0.96799833 0 255 0
0.55506736 -0.085915409 0.96775758 0 255 0
0.55378884 -0.085666873 0.96693993 0 255 0
0.55348051 -0.085606433 0.96592689 0 255 0
0.55317217 -0.085545994 0.96491385 0 255 0
0.550928 -0.085110232 0.96430576 0 255 0
0.55062073 -0.085050002 0.96329629 0 255 0
0.54741287 -0.084427431 0.96290493 0 255 0
0.54614091 -0.084180184 0.96210861 0 255 0
0.54583585 -0.084120385 0.9611063 0 255 0
0.5455308 -0.084060587 0.96010399 0 255 0
0.54522568 -0.084000781 0.95910168 0 255 0
0.53720748 -0.082445636 0.95981908 0 255 0
0.53497958 -0.082013078 0.95926458 0 255 0
0.53467995 -0.081954345 0.95828015 0 255 0
0.53534275 -0.082082205 0.95707536 0 255 0
0.53504258 -0.082023367 0.95608914 0 255 0
0.53474241 -0.081964523 0.95510292 0 255 0
0.53444219 -0.081905685 0.9541167 0 255 0
0.53414202 -0.081846841 0.95313042 0 255 0
0.53384185 -0.081788003 0.95214421 0 255 0
0.53354168 -0.081729159 0.95115799 0 255 0
0.53324145 -0.081670322 0.95017177 0 255 0
0.53389943 -0.08179722 0.94895089 0 255 0
0.53359872 -0.081738278 0.94796288 0 255 0
0.53329796 -0.081679329 0.94697487 0 255 0
0.53299725 -0.08162038 0.94598687 0 255 0
0.53269649 -0.081561431 0.94499886 0 255 0
0.53239578 -0.081502482 0.94401085 0 255 0
0.53209502 -0.081443541 0.94302285 0 255 0
0.53179431 -0.081384592 0.94203484 0 255 0
0.5314936 -0.081325643 0.94104683 0 255 0
0.53023958 -0.081081912 0.94030946 0 255 0
0.52993941 -0.081023075 0.93932325 0 255 0
0.53059137 -0.081148803 0.93808275 0 255 0
0.53029066 -0.081089854 0.93709475 0 255 0
0.5299899 -0.081030905 0.93610674 0 255 0
0.52968919 -0.080971964 0.93511868 0 255 0
0.52938849 -0.080913015 0.93413067 0 255 0
0.52908772 -0.080854066 0.93314266 0 255 0
0.52878702 -0.080795124 0.93215466 0 255 0
0.52848625 -0.080736175 0.93116665 0 255 0
0.52818555 -0.080677226 0.93017864 0 255 0
0.52788478 -0.080618277 0.92919064 0 255 0
0.52853084 -0.080742843 0.92793047 0 255 0
0.52822959 -0.08068379 0.92694068 0 255 0
0.52792829 -0.080624737 0.92595088 0 255 0
0.52762705 -0.080565684 0.92496109 0 255 0
0.52732575 -0.08050663 0.9239713 0 255 0
0.56475705 -0.088896051 0.97341681 0 255 0
0.56444383 -0.088834651 0.97238773 0 255 0
0.5641306 -0.088773251 0.9713586 0 255 0
0.56381732 -0.08871185 0.97032952 0 255 0
0.56253284 -0.088460237 0.96949029 0 255 0
0.56124938 -0.088208824 0.96865469 0 255 0
0.55996704 -0.087957628 0.96782267 0 255 0
0.55868578 -0.087706648 0.96699417 0 255 0
0.55643642 -0.087266058 0.96636635 0 255 0
0.55612648 -0.087205298 0.96534795 0 255 0
0.55581647 -0.087144539 0.9643296 0 255 0
0.55453902 -0.086894304 0.96351361 0 255 0
0.55036181 -0.086076163 0.96331382 0 255 0
0.54715532 -0.085448138 0.96292239 0 255 0
0.54588389 -0.08519908 0.96212608 0 255 0
0.54557878 -0.085139282 0.96112376 0 255 0
0.54527372 -0.085079484 0.96012145 0 255 0
0.54496861 -0.085019678 0.95911914 0 255 0
0.53539002 -0.083143592 0.95807874 0 255 0
0.53508985 -0.083084755 0.95709252 0 255 0
0.53478968 -0.083025917 0.95610631 0 255 0
0.5354504 -0.083155267 0.95489621 0 255 0
0.53514969 -0.083096318 0.95390821 0 255 0
0.53484893 -0.083037376 0.9529202 0 255 0
0.53454822 -0.082978427 0.95193219 0 255 0
0.53424752 -0.082919478 0.95094419 0 255 0
0.53394675 -0.082860529 0.94995612 0 255 0
0.53364605 -0.08280158 0.94896811 0 255 0
0.53334528 -0.082742639 0.94798011 0 255 0
0.53304458 -0.08268369 0.9469921 0 255 0
0.53274387 -0.082624741 0.94600409 0 255 0
0.53244311 -0.082565799 0.94501603 0 255 0
0.5321424 -0.08250685 0.94402802 0 255 0
0.53279614 -0.082634829 0.94279474 0 255 0
0.53249484 -0.082575776 0.94180489 0 255 0
0.5321936 -0.082516722 0.94081509 0 255 0
0.53093946 -0.082271062 0.94007599 0 255 0
0.53063875 -0.082212113 0.93908799 0 255 0
0.53128976 -0.082339562 0.93784571 0 255 0
0.53003728 -0.082094222 0.93711197 0 255 0
0.52973652 -0.082035273 0.93612397 0 255 0
0.52943581 -0.081976324 0.9351359 0 255 0
0.52913505 -0.081917375 0.93414789 0 255 0
0.52883434 -0.081858426 0.93315989 0 255 0
0.52853364 -0.081799485 0.93217188 0 255 0
0.52823287 -0.081740536 0.93118387 0 255 0
0.52793217 -0.081681587 0.93019581 0 255 0
0.5276314 -0.081622645 0.9292078 0 255 0
0.52827704 -0.081749022 0.9279477 0 255 0
0.52797574 -0.081689969 0.92695791 0 255 0
0.5276745 -0.081630915 0.92596811 0 255 0
0.52737319 -0.081571862 0.92497832 0 255 0
0.52707189 -0.081512809 0.92398846 0 255 0
0.56449312 -0.089942187 0.97343475 0 255 0
0.5641799 -0.089880787 0.97240561 0 255 0
0.56386667 -0.089819387 0.97137654 0 255 0
0.56355339 -0.089757994 0.9703474 0 255 0
0.56226933 -0.089504555 0.96950817 0 255 0
0.5609864 -0.089251332 0.96867251 0 255 0
0.55970448 -0.088998318 0.96784049 0 255 0
0.5584237 -0.08874552 0.96701193 0 255 0
0.55617529 -0.088301301 0.96638405 0 255 0
0.55586529 -0.088240542 0.96536571 0 255 0
0.55555534 -0.088179782 0.9643473 0 255 0
0.55427831 -0.087927729 0.96353132 0 255 0
0.55010295 -0.087102324 0.9633314 0 255 0
0.54786384 -0.086659938 0.96273386 0 255 0
0.54659218 -0.086408943 0.96193576 0 255 0
0.54532176 -0.086158171 0.96114123 0 255 0
0.54501665 -0.086098373 0.96013892 0 255 0
0.54374784 -0.085847914 0.95934969 0 255 0
0.53513712 -0.084146142 0.95809591 0 255 0
0.53483689 -0.084087297 0.95710969 0 255 0
0.53645885 -0.084408708 0.95567942 0 255 0
0.53615761 -0.084349655 0.95468956 0 255 0
0.53585631 -0.084290601 0.95369977 0 255 0
0.53555501 -0.084231548 0.95270997 0 255 0
0.53525376 -0.084172495 0.95172018 0 255 0
0.53495246 -0.084113441 0.95073038 0 255 0
0.53465122 -0.084054388 0.94974059 0 255 0
0.53339267 -0.083805948 0.94898534 0 255 0
0.5330919 -0.083747 0.94799733 0 255 0
0.5327912 -0.083688051 0.94700933 0 255 0
0.53249043 -0.083629102 0.94602132 0 255 0
0.53218973 -0.08357016 0.94503325 0 255 0
0.53188902 -0.083511211 0.94404525 0 255 0
0.53254229 -0.083641008 0.94281197 0 255 0
0.53224099 -0.083581954 0.94182217 0 255 0
0.53193974 -0.083522901 0.94083238 0 255 0
0.53068608 -0.083275422 0.94009316 0 255 0
0.53038532 -0.083216473 0.93910515 0 255 0
0.5310359 -0.083345741 0.93786293 0 255 0
0.5297839 -0.083098583 0.93712914 0 255 0
0.52948314 -0.083039634 0.93614113 0 255 0
0.52918243 -0.082980685 0.93515313 0 255 0
0.52888167 -0.082921743 0.93416512 0 255 0
0.52858096 -0.082862794 0.93317711 0 255 0
0.5282802 -0.082803845 0.93218911 0 255 0
0.52797949 -0.082744896 0.93120104 0 255 0
0.52862573 -0.082873315 0.92994452 0 255 0
0.52832443 -0.082814261 0.92895472 0 255 0
0.52802318 -0.082755208 0.92796493 0 255 0
0.52772188 -0.082696155 0.92697513 0 255 0
0.52742064 -0.082637101 0.92598534 0 255 0
0.52711934 -0.082578041 0.92499554 0 255 0
0.5268181 -0.082518987 0.92400575 0 255 0
0.56554568 -0.091253676 0.97102189 0 255 0
0.56523138 -0.091192059 0.96998918 0 255 0
0.56297624 -0.09074273 0.96933621 0 255 0
0.56169319 -0.090487584 0.96849877 0 255 0
0.56041121 -0.090232648 0.96766484 0 255 0
0.55913031 -0.089977928 0.96683455 0 255 0
0.55688226 -0.089529984 0.96620476 0 255 0
0.5556041 -0.089275777 0.96538341 0 255 0
0.55529416 -0.089215018 0.96436501 0 255 0
0.5540176 -0.088961154 0.96354902 0 255 0
0.54984403 -0.088128477 0.96334898 0 255 0
0.54857135 -0.087875366 0.96254545 0 255 0
0.54729968 -0.087622456 0.9617455 0 255 0
0.54602909 -0.087369747 0.96094918 0 255 0
0.54572344 -0.087309837 0.95994508 0 255 0
0.54349124 -0.086864993 0.95936716 0 255 0
0.54318666 -0.086805299 0.95836663 0 255 0
0.53999543 -0.086168833 0.95801604 0 255 0
0.53873092 -0.085917309 0.95723933 0 255 0
0.5365063 -0.08547394 0.95668644 0 255 0
0.53620499 -0.085414886 0.95569658 0 255 0
0.53590375 -0.085355833 0.95470679 0 255 0
0.53560245 -0.08529678 0.95371699 0 255 0
0.53530121 -0.085237727 0.9527272 0 255 0
0.53499991 -0.085178673 0.9517374 0 255 0
0.53469867 -0.08511962 0.95074761 0 255 0
0.53439736 -0.085060567 0.94975781 0 255 0
0.53409606 -0.085001513 0.94876802 0 255 0
0.53379482 -0.08494246 0.94777822 0 255 0
0.53349352 -0.084883407 0.94678843 0 255 0
0.53319228 -0.084824353 0.94579864 0 255 0
0.53289098 -0.0847653 0.94480878 0 255 0
0.53258973 -0.084706247 0.94381899 0 255 0
0.53228843 -0.084647194 0.94282919 0 255 0
0.53198719 -0.08458814 0.9418394 0 255 0
0.53168589 -0.084529087 0.9408496 0 255 0
0.53138465 -0.084470034 0.93985981 0 255 0
0.53108335 -0.08441098 0.93886995 0 255 0
0.53078204 -0.084351927 0.93788016 0 255 0
0.5304808 -0.084292866 0.93689036 0 255 0
0.5301795 -0.084233813 0.93590057 0 255 0
0.52987826 -0.08417476 0.93491077 0 255 0
0.52957696 -0.084115706 0.93392098 0 255 0
0.52927572 -0.084056653 0.93293118 0 255 0
0.52897441 -0.0839976 0.93194139 0 255 0
0.52867317 -0.083938546 0.9309516 0 255 0
0.52837187 -0.083879493 0.9299618 0 255 0
0.52807057 -0.08382044 0.92897201 0 255 0
0.52776933 -0.083761387 0.92798215 0 255 0
0.52746803 -0.083702333 0.92699236 0 255 0
0.52716678 -0.08364328 0.92600256 0 255 0
0.5278092 -0.083772868 0.92473537 0 255 0
0.56593704 -0.09243761 0.96981913 0 255 0
0.56368232 -0.091984548 0.96916431 0 255 0
0.56142974 -0.091531903 0.96851665 0 255 0
0.56014818 -0.091275156 0.96768272 0 255 0
0.55886775 -0.091018617 0.96685237 0 255 0
0.55758846 -0.090762295 0.96602559 0 255 0
0.55631012 -0.090506174 0.96520239 0 255 0
0.55503297 -0.090250261 0.96438277 0 255 0
0.55375689 -0.08999458 0.96356672 0 255 0
0.54958516 -0.089154638 0.96336657 0 255 0
0.5492779 -0.089094415 0.9623571 0 255 0
0.54800618 -0.088839583 0.96155536 0 255 0
0.54577154 -0.088390455 0.96096665 0 255 0
0.54546595 -0.088330552 0.95996255 0 255 0
0.53938323 -0.087104924 0.96023679 0 255 0
0.54293007 -0.087822378 0.95838404 0 255 0
0.53974026 -0.087180458 0.95803338 0 255 0
0.53847611 -0.086927123 0.95725662 0 255 0
0.53625244 -0.086480126 0.95670366 0 255 0
0.53595114 -0.086421072 0.95571387 0 255 0
0.5356499 -0.086362019 0.95472407 0 255 0
0.53534859 -0.086302966 0.95373428 0 255 0
0.53504735 -0.086243913 0.95274448 0 255 0
0.53474605 -0.086184859 0.95175463 0 255 0
0.53444481 -0.086125806 0.95076483 0 255 0
0.53414351 -0.086066753 0.94977504 0 255 0
0.53384227 -0.086007692 0.94878525 0 255 0
0.53354096 -0.085948639 0.94779545 0 255 0
0.53323972 -0.085889585 0.94680566 0 255 0
0.53293842 -0.085830532 0.9458158 0 255 0
0.53263712 -0.085771479 0.94482601 0 255 0
0.53233588 -0.085712425 0.94383621 0 255 0
0.53203458 -0.085653372 0.94284642 0 255 0
0.53173333 -0.085594319 0.94185662 0 255 0
0.53143203 -0.085535266 0.94086683 0 255 0
0.53113079 -0.085476212 0.93987703 0 255 0
0.53082949 -0.085417159 0.93888724 0 255 0
0.53052825 -0.085358106 0.93789744 0 255 0
0.53022695 -0.085299045 0.93690765 0 255 0
0.52992564 -0.085239992 0.93591785 0 255 0
0.5296244 -0.085180938 0.934928 0 255 0
0.5293231 -0.085121885 0.93393821 0 255 0
0.52902186 -0.085062832 0.93294841 0 255 0
0.52872056 -0.085003778 0.93195862 0 255 0
0.52841932 -0.084944725 0.93096882 0 255 0
0.52811801 -0.084885672 0.92997903 0 255 0
0.52876216 -0.085017502 0.92871898 0 255 0
0.52846038 -0.084958345 0.9277274 0 255 0
0.52815855 -0.084899187 0.92673582 0 255 0
0.52880055 -0.085030578 0.92546862 0 255 0
0.52849817 -0.084971316 0.92447525 0 255 0
0.56470168 -0.093291596 0.97002518 0 255 0
0.56341791 -0.093032502 0.96918225 0 255 0
0.56116623 -0.092576221 0.96853453 0 255 0
0.56085354 -0.092514932 0.96750724 0 255 0
0.55957305 -0.092256472 0.96667504 0 255 0
0.55732632 -0.091801167 0.96604335 0 255 0
0.5570153 -0.091740191 0.96502143 0 255 0
0.55573797 -0.091482364 0.96419996 0 255 0
0.55349618 -0.091027997 0.96358442 0 255 0
0.5493263 -0.090180799 0.96338415 0 255 0
0.54805446 -0.089924045 0.96258056 0 255 0
0.54774773 -0.089863926 0.96157289 0 255 0
0.54647756 -0.089607492 0.96077466 0 255 0
0.54617143 -0.089547485 0.95976877 0 255 0
0.53912842 -0.088114738 0.96025407 0 255 0
0.53882611 -0.088055469 0.9592607 0 255 0
0.53852373 -0.0879962 0.95826733 0 255 0
0.53822136 -0.087936938 0.95727396 0 255 0
0.53599858 -0.087486304 0.95672089 0 255 0
0.53569734 -0.087427251 0.95573109 0 255 0
0.53539604 -0.087368198 0.9547413 0 255 0
0.53509474 -0.087309144 0.9537515 0 255 0
0.53575152 -0.087445349 0.95253438 0 255 0
0.53640717 -0.087581336 0.95131367 0 255 0
0.53514791 -0.087327033 0.95055115 0 255 0
0.53484607 -0.087267876 0.94955957 0 255 0
0.53454423 -0.087208711 0.94856799 0 255 0
0.53424245 -0.087149553 0.9475764 0 255 0
0.53298587 -0.086895764 0.94682288 0 255 0
0.53268456 -0.086836711 0.94583309 0 255 0
0.53238332 -0.086777657 0.94484329 0 255 0
0.53208202 -0.086718604 0.9438535 0 255 0
0.53273332 -0.08685375 0.94261849 0 255 0
0.53243154 -0.086794585 0.94162691 0 255 0
0.5321297 -0.086735427 0.94063532 0 255 0
0.53182787 -0.08667627 0.93964374 0 255 0
0.53152609 -0.086617112 0.93865216 0 255 0
0.53122425 -0.086557947 0.93766057 0 255 0
0.52997309 -0.086305231 0.93692487 0 255 0
0.52967185 -0.086246178 0.93593502 0 255 0
0.52937055 -0.086187124 0.93494523 0 255 0
0.5290693 -0.086128071 0.93395543 0 255 0
0.528768 -0.08606901 0.93296564 0 255 0
0.5284667 -0.086009957 0.93197584 0 255 0
0.52816546 -0.085950904 0.93098605 0 255 0
0.52880973 -0.086084664 0.92972785 0 255 0
0.52850789 -0.086025506 0.92873621 0 255 0
0.52915049 -0.086158924 0.92747271 0 255 0
0.52884811 -0.086099654 0.92647934 0 255 0
0.5285458 -0.086040393 0.92548597 0 255 0
0.52824342 -0.085981123 0.9244926 0 255 0
0.56443685 -0.094341367 0.97004312 0 255 0
0.56218445 -0.093881138 0.96938998 0 255 0
0.56090277 -0.093620546 0.96855241 0 255 0
0.56059009 -0.09355925 0.96752512 0 255 0
0.55931002 -0.093298972 0.96669292 0 255 0
0.55899787 -0.093237787 0.96566737 0 255 0
0.55675316 -0.09277907 0.96503919 0 255 0
0.55547631 -0.092519417 0.96421772 0 255 0
0.55227023 -0.091862865 0.96380436 0 255 0
0.55099666 -0.09160386 0.96299362 0 255 0
0.54779601 -0.090948388 0.96259809 0 255 0
0.54748935 -0.090888269 0.96159041 0 255 0
0.54621959 -0.090630017 0.96079218 0 255 0
0.54591346 -0.090570003 0.9597863 0 255 0
0.53887367 -0.089124545 0.96027136 0 255 0
0.5385713 -0.089065284 0.95927799 0 255 0
0.53826898 -0.089006014 0.95828462 0 255 0
0.53796661 -0.088946745 0.95729125 0 255 0
0.53670448 -0.08868999 0.95651799 0 255 0
0.5364027 -0.088630833 0.95552641 0 255 0
0.53705949 -0.088768944 0.95431113 0 255 0
0.53675717 -0.088709682 0.95331776 0 255 0
0.53741235 -0.088847481 0.95209706 0 255 0
0.53710943 -0.088788107 0.9511019 0 255 0
0.53680652 -0.088728733 0.95010674 0 255 0
0.53650361 -0.08866936 0.94911158 0 255 0
0.53524536 -0.088413343 0.94835085 0 255 0
0.53494298 -0.088354081 0.94735748 0 255 0
0.53464061 -0.088294812 0.9463641 0 255 0
0.5333845 -0.088039227 0.94561052 0 255 0
0.53308266 -0.087980069 0.94461894 0 255 0
0.53278083 -0.087920904 0.94362736 0 255 0
0.53343117 -0.088057742 0.94239062 0 255 0
0.5331288 -0.08799848 0.94139725 0 255 0
0.53282642 -0.08793921 0.94040382 0 255 0
0.53252411 -0.087879941 0.93941045 0 255 0
0.53222173 -0.087820679 0.93841708 0 255 0
0.53096992 -0.087565944 0.9376778 0 255 0
0.53066814 -0.087506786 0.93668622 0 255 0
0.5303663 -0.087447621 0.93569463 0 255 0
0.53006446 -0.087388463 0.93470305 0 255 0
0.52881545 -0.08713425 0.93397272 0 255 0
0.52851415 -0.087075189 0.93298292 0 255 0
0.5282129 -0.087016135 0.93199307 0 255 0
0.5279116 -0.086957082 0.93100327 0 255 0
0.52855539 -0.08709266 0.92974508 0 255 0
0.52919811 -0.087228008 0.92848337 0 255 0
0.52889574 -0.087168738 0.92749 0 255 0
0.52859336 -0.087109469 0.92649662 0 255 0
0.52829099 -0.0870502 0.92550325 0 255 0
0.52798867 -0.086990938 0.92450988 0 255 0
0.56417197 -0.095391139 0.97006112 0 255 0
0.56192052 -0.094927274 0.96940792 0 255 0
0.56063932 -0.094664864 0.96857029 0 255 0
0.56032664 -0.094603568 0.96754301 0 255 0
0.56001395 -0.09454228 0.96651566 0 255 0
0.55873489 -0.094280295 0.96568525 0 255 0
0.55842274 -0.094219111 0.96465969 0 255 0
0.5552147 -0.093556471 0.96423548 0 255 0
0.55201 -0.09289448 0.96382201 0 255 0
0.55073684 -0.09263365 0.96301126 0 255 0
0.54850125 -0.092172891 0.96240985 0 255 0
0.54819399 -0.09211266 0.96140039 0 255 0
0.54788673 -0.092052437 0.96039093 0 255 0
0.53988332 -0.090393469 0.9610709 0 255 0
0.53861892 -0.09013436 0.96028864 0 255 0
0.53831655 -0.090075091 0.95929527 0 255 0
0.53801417 -0.090015829 0.9583019 0 255 0
0.53771186 -0.089956559 0.95730853 0 255 0
0.53740948 -0.08989729 0.95631516 0 255 0
0.53710711 -0.089838028 0.95532179 0 255 0
0.53776294 -0.089977853 0.95410472 0 255 0
0.53746003 -0.089918479 0.95310956 0 255 0
0.53715712 -0.089859106 0.9521144 0 255 0
0.53685421 -0.089799732 0.95111924 0 255 0
0.53655136 -0.089740358 0.95012408 0 255 0
0.53624845 -0.089680985 0.94912893 0 255 0
0.53594553 -0.089621611 0.94813377 0 255 0
0.53468823 -0.089363888 0.94737476 0 255 0
0.53438586 -0.089304626 0.94638139 0 255 0
0.53408349 -0.089245357 0.94538802 0 255 0
0.53378111 -0.089186087 0.94439465 0 255 0
0.53347874 -0.089126825 0.94340128 0 255 0
0.53317642 -0.089067556 0.94240791 0 255 0
0.53287405 -0.089008287 0.94141454 0 255 0
0.53257167 -0.088949025 0.94042116 0 255 0
0.5322693 -0.088889755 0.93942779 0 255 0
0.53196692 -0.088830486 0.93843442 0 255 0
0.53166461 -0.088771224 0.93744099 0 255 0
0.53136224 -0.088711955 0.93644762 0 255 0
0.53105986 -0.088652685 0.93545425 0 255 0
0.53075749 -0.088593423 0.93446088 0 255 0
0.52950835 -0.088337295 0.93372869 0 255 0
0.52920651 -0.088278137 0.93273711 0 255 0
0.52890474 -0.088218972 0.93174553 0 255 0
0.5286029 -0.088159814 0.93075395 0 255 0
0.52924567 -0.088297084 0.92949402 0 255 0
0.52894336 -0.088237822 0.92850065 0 255 0
0.52864099 -0.088178553 0.92750728 0 255 0
0.52833861 -0.088119283 0.92651391 0 255 0
0.52803624 -0.088060014 0.92552054 0 255 0
0.52867579 -0.088196643 0.92424989 0 255 0
0.56487584 -0.096643947 0.96989119 0 255 0
0.56262475 -0.096176356 0.96923614 0 255 0
0.56037587 -0.095709182 0.96858823 0 255 0
0.56006312 -0.095647894 0.96756089 0 255 0
0.55975044 -0.095586598 0.96653354 0 255 0
0.55847186 -0.095322803 0.96570307 0 255 0
0.55815971 -0.095261611 0.96467757 0 255 0
0.55784756 -0.095200427 0.96365201 0 255 0
0.55174971 -0.09392608 0.96383971 0 255 0
0.55047709 -0.093663439 0.96302891 0 255 0
0.54824233 -0.093199044 0.96242744 0 255 0
0.54793513 -0.093138821 0.96141797 0 255 0
0.54762787 -0.093078598 0.96040851 0 255 0
0.53962809 -0.091405094 0.96108818 0 255 0
0.53932518 -0.091345727 0.96009302 0 255 0
0.53902227 -0.091286346 0.95909786 0 255 0
0.53871936 -0.09122698 0.9581027 0 255 0
0.53841645 -0.091167599 0.95710754 0 255 0
0.53715473 -0.090907104 0.95633245 0 255 0
0.53685236 -0.090847842 0.95533907 0 255 0
0.53750771 -0.090989485 0.95412207 0 255 0
0.5372048 -0.090930112 0.95312691 0 255 0
0.53690189 -0.090870738 0.95213175 0 255 0
0.53659904 -0.090811364 0.95113659 0 255 0
0.53629613 -0.090751991 0.95014143 0 255 0
0.53599322 -0.090692617 0.94914627 0 255 0
0.53569031 -0.090633243 0.94815111 0 255 0
0.53443342 -0.090373702 0.94739211 0 255 0
0.53413111 -0.090314433 0.94639874 0 255 0
0.53382874 -0.090255171 0.9454053 0 255 0
0.53352636 -0.090195902 0.94441193 0 255 0
0.53322399 -0.090136632 0.94341856 0 255 0
0.53292161 -0.09007737 0.94242519 0 255 0
0.5326193 -0.090018101 0.94143182 0 255 0
0.53231692 -0.089958832 0.94043845 0 255 0
0.53201455 -0.08989957 0.93944508 0 255 0
0.53171217 -0.0898403 0.93845171 0 255 0
0.5314098 -0.089781031 0.93745834 0 255 0
0.53110749 -0.089721769 0.93646497 0 255 0
0.53080511 -0.0896625 0.93547159 0 255 0
0.53050274 -0.08960323 0.93447816 0 255 0
0.53020036 -0.089543968 0.93348479 0 255 0
0.52989799 -0.089484699 0.93249142 0 255 0
0.52959567 -0.08942543 0.93149805 0 255 0
0.5292933 -0.089366168 0.93050468 0 255 0
0.52993506 -0.089505143 0.92924303 0 255 0
0.52963215 -0.08944577 0.92824787 0 255 0
0.52932924 -0.089386396 0.92725271 0 255 0
0.52902639 -0.089327022 0.92625755 0 255 0
0.52872348 -0.089267649 0.92526239 0 255 0
0.52842057 -0.089208275 0.92426723 0 255 0
0.55979967 -0.096692212 0.96757877 0 255 0
0.55948699 -0.096630916 0.96655142 0 255 0
0.5591743 -0.096569628 0.96552414 0 255 0
0.55886161 -0.096508339 0.96449679 0 255 0
0.55854893 -0.096447043 0.96346951 0 255 0
0.55148947 -0.094957687 0.96385735 0 255 0
0.5511806 -0.094897136 0.96284258 0 255 0
0.54798347 -0.094225205 0.96244502 0 255 0
0.54767621 -0.094164982 0.96143556 0 255 0
0.54736894 -0.094104752 0.96042609 0 255 0
0.53972709 -0.092501253 0.95890051 0 255 0
0.53942364 -0.092441767 0.95790356 0 255 0
0.5391202 -0.092382289 0.95690662 0 255 0
0.53881675 -0.092322811 0.95590967 0 255 0
0.5385133 -0.092263326 0.95491272 0 255 0
0.53820986 -0.092203848 0.95391577 0 255 0
0.53790641 -0.09214437 0.95291877 0 255 0
0.53760296 -0.092084892 0.95192182 0 255 0
0.53729951 -0.092025414 0.95092487 0 255 0
0.53699607 -0.091965929 0.94992793 0 255 0
0.53669262 -0.091906451 0.94893098 0 255 0
0.53638917 -0.091846973 0.94793403 0 255 0
0.53608572 -0.091787487 0.94693708 0 255 0
0.53578228 -0.091728009 0.94594014 0 255 0
0.53547883 -0.091668531 0.94494319 0 255 0
0.53517532 -0.091609046 0.94394624 0 255 0
0.53487188 -0.091549568 0.9429493 0 255 0
0.53456843 -0.09149009 0.94195235 0 255 0
0.53426498 -0.091430604 0.9409554 0 255 0
0.53301179 -0.091169879 0.94020712 0 255 0
0.53270894 -0.091110505 0.93921196 0 255 0
0.53240603 -0.091051131 0.93821681 0 255 0
0.53210312 -0.090991765 0.93722165 0 255 0
0.53180021 -0.090932384 0.93622649 0 255 0
0.5314973 -0.090873018 0.93523133 0 255 0
0.53119439 -0.090813637 0.93423617 0 255 0
0.53089148 -0.090754271 0.93324101 0 255 0
0.53058857 -0.090694889 0.93224585 0 255 0
0.53028566 -0.090635523 0.93125069 0 255 0
0.53092706 -0.090776324 0.92998898 0 255 0
0.53062361 -0.090716846 0.92899203 0 255 0
0.53032017 -0.090657368 0.92799509 0 255 0
0.53001672 -0.090597883 0.92699814 0 255 0
0.52971327 -0.090538405 0.92600119 0 255 0
0.53035134 -0.090678558 0.92472887 0 255 0
0.56050229 -0.097942889 0.96740341 0 255 0
0.56018901 -0.097881489 0.96637434 0 255 0
0.55987579 -0.097820088 0.96534526 0 255 0
0.55956256 -0.097758688 0.96431613 0 255 0
0.55924934 -0.097697288 0.963287 0 255 0
0.55893606 -0.097635895 0.96225792 0 255 0
0.53947145 -0.093514696 0.95891786 0 255 0
0.539168 -0.093455218 0.95792091 0 255 0
0.53886449 -0.09339574 0.95692396 0 255 0
0.53856105 -0.093336254 0.95592701 0 255 0
0.5382576 -0.093276776 0.95493007 0 255 0
0.53891098 -0.093421839 0.95370954 0 255 0
0.538607 -0.093362249 0.95271081 0 255 0
0.53830302 -0.093302667 0.95171207 0 255 0
0.53799903 -0.093243077 0.95071334 0 255 0
0.53769505 -0.093183488 0.9497146 0 255 0
0.53739101 -0.093123905 0.94871587 0 255 0
0.53613347 -0.092860416 0.94795144 0 255 0
0.53583002 -0.09280093 0.94695449 0 255 0
0.53552657 -0.092741452 0.94595754 0 255 0
0.53617507 -0.092885554 0.94472092 0 255 0
0.53491968 -0.092622496 0.94396365 0 255 0
0.53461623 -0.092563011 0.9429667 0 255 0
0.53431278 -0.092503533 0.94196975 0 255 0
0.53400934 -0.092444055 0.94097281 0 255 0
0.53370589 -0.092384577 0.93997586 0 255 0
0.53340244 -0.092325091 0.93897891 0 255 0
0.533099 -0.092265613 0.93798196 0 255 0
0.53279555 -0.092206135 0.93698502 0 255 0
0.5324921 -0.09214665 0.93598807 0 255 0
0.53218865 -0.092087172 0.93499112 0 255 0
0.53188515 -0.092027694 0.93399417 0 255 0
0.5315817 -0.091968209 0.93299723 0 255 0
0.53127825 -0.091908731 0.93200028 0 255 0
0.53097481 -0.091849253 0.93100333 0 255 0
0.53161514 -0.091991752 0.92973989 0 255 0
0.53131115 -0.09193217 0.92874116 0 255 0
0.53194988 -0.09207435 0.92747235 0 255 0
0.5316453 -0.092014655 0.92647183 0 255 0
0.53134078 -0.091954961 0.92547137 0 255 0
0.53103626 -0.091895267 0.92447084 0 255 0
0.55929863 -0.098804832 0.96433401 0 255 0
0.55898541 -0.098743431 0.96330494 0 255 0
0.55867213 -0.098682031 0.9622758 0 255 0
0.53921574 -0.094528139 0.9589352 0 255 0
0.5389123 -0.094468661 0.95793825 0 255 0
0.53956681 -0.094615862 0.95672309 0 255 0
0.53926283 -0.094556272 0.95572442 0 255 0
0.53895885 -0.094496682 0.95472568 0 255 0
0.53865486 -0.0944371 0.95372695 0 255 0
0.53835088 -0.09437751 0.95272821 0 255 0
0.5380469 -0.094317928 0.95172948 0 255 0
0.53774285 -0.094258338 0.95073074 0 255 0
0.53743887 -0.094198748 0.94973201 0 255 0
0.53713489 -0.094139166 0.94873327 0 255 0
0.53587776 -0.093873858 0.94796878 0 255 0
0.53557432 -0.09381438 0.94697183 0 255 0
0.53622293 -0.093960404 0.94573706 0 255 0
0.53591889 -0.093900815 0.94473833 0 255 0
0.53561491 -0.093841232 0.94373959 0 255 0
0.53531092 -0.093781643 0.94274086 0 255 0
0.53500694 -0.09372206 0.94174212 0 255 0
0.53375363 -0.093457498 0.94099015 0 255 0
0.53345019 -0.09339802 0.9399932 0 255 0
0.53314674 -0.093338534 0.93899626 0 255 0
0.53284329 -0.093279056 0.93799931 0 255 0
0.53253984 -0.093219578 0.93700236 0 255 0
0.5322364 -0.093160093 0.93600541 0 255 0
0.53193295 -0.093100615 0.93500847 0 255 0
0.5316295 -0.093041137 0.93401152 0 255 0
0.53132606 -0.092981659 0.93301457 0 255 0
0.53102261 -0.092922181 0.93201762 0 255 0
0.531663 -0.093066603 0.93075603 0 255 0
0.53135902 -0.093007013 0.9297573 0 255 0
0.5319978 -0.093151122 0.92849034 0 255 0
0.53169328 -0.093091428 0.92748982 0 255 0
0.5313887 -0.093031734 0.92648929 0 255 0
0.53108418 -0.09297204 0.92548877 0 255 0
0.53172022 -0.093115613 0.92421287 0 255 0
0.55968451 -0.099999137 0.96312255 0 255 0
0.55937076 -0.099937633 0.96209162 0 255 0
0.53896004 -0.095541589 0.95895255 0 255 0
0.53865659 -0.095482111 0.9579556 0 255 0
0.53931069 -0.095631123 0.9567405 0 255 0
0.53900671 -0.095571533 0.95574176 0 255 0
0.53870273 -0.095511943 0.95474303 0 255 0
0.53839874 -0.095452361 0.95374429 0 255 0
0.5390501 -0.095600843 0.95252025 0 255 0
0.53779072 -0.095333189 0.95174682 0 255 0
0.53748673 -0.095273599 0.95074809 0 255 0
0.53718275 -0.095214009 0.94974935 0 255 0
0.53687876 -0.095154427 0.94875062 0 255 0
0.53657478 -0.095094837 0.94775188 0 255 0
0.53627074 -0.095035255 0.94675314 0 255 0
0.53596675 -0.094975665 0.94575441 0 255 0
0.53566277 -0.094916075 0.94475567 0 255 0
0.53535879 -0.094856493 0.94375694 0 255 0
0.5350548 -0.094796903 0.9427582 0 255 0
0.53475082 -0.094737321 0.94175947 0 255 0
0.53444678 -0.094677731 0.94076073 0 255 0
0.53414279 -0.094618142 0.939762 0 255 0
0.53383881 -0.094558559 0.93876326 0 255 0
0.53258759 -0.094292507 0.93801665 0 255 0
0.53228414 -0.094233021 0.93701971 0 255 0
0.53198069 -0.094173543 0.93602276 0 255 0
0.53167725 -0.094114065 0.93502581 0 255 0
0.53231883 -0.094260626 0.93376958 0 255 0
0.53201485 -0.094201036 0.93277085 0 255 0
0.53171086 -0.094141454 0.93177211 0 255 0
0.53140688 -0.094081864 0.93077338 0 255 0
0.53204572 -0.094227895 0.92950827 0 255 0
0.5317412 -0.094168201 0.92850775 0 255 0
0.53237844 -0.094313912 0.92723727 0 255 0
0.53207332 -0.094254106 0.92623496 0 255 0
0.53176826 -0.094194308 0.92523265 0 255 0
0.54031616 -0.096916385 0.95754027 0 255 0
0.53905457 -0.096646383 0.9567579 0 255 0
0.53875059 -0.096586794 0.95575917 0 255 0
0.53844661 -0.096527204 0.95476043 0 255 0
0.53909802 -0.096677609 0.95353818 0 255 0
0.5387935 -0.096617922 0.95253766 0 255 0
0.53753459 -0.09634845 0.95176423 0 255 0
0.53723061 -0.09628886 0.95076549 0 255 0
0.53787988 -0.09643884 0.94953609 0 255 0
0.53757536 -0.096379146 0.94853562 0 255 0
0.53727078 -0.096319452 0.9475351 0 255 0
0.53696626 -0.096259758 0.94653457 0 255 0
0.53666174 -0.096200064 0.94553405 0 255 0
0.53635722 -0.09614037 0.94453353 0 255 0
0.53605264 -0.096080676 0.943533 0 255 0
0.53574812 -0.096020982 0.94253248 0 255 0
0.5354436 -0.095961288 0.94153196 0 255 0
0.53513902 -0.095901594 0.94053143 0 255 0
0.5348345 -0.0958419 0.93953091 0 255 0
0.53452998 -0.095782213 0.93853039 0 255 0
0.53422546 -0.095722519 0.93752986 0 255 0
0.53297472 -0.095454648 0.93678319 0 255 0
0.53267068 -0.095395058 0.93578446 0 255 0
0.53331184 -0.095543437 0.93452829 0 255 0
0.53300726 -0.095483743 0.93352777 0 255 0
0.53270274 -0.095424049 0.93252724 0 255 0
0.53239822 -0.095364362 0.93152672 0 255 0
0.53209364 -0.095304668 0.9305262 0 255 0
0.53273153 -0.095452406 0.9292593 0 255 0
0.53242648 -0.0953926 0.92825699 0 255 0
0.53212136 -0.095332801 0.92725474 0 255 0
0.5318163 -0.095273003 0.92625242 0 255 0
0.53151119 -0.095213205 0.92525011 0 255 0
0.5321458 -0.095360301 0.92397249 0 255 0
0.54101676 -0.098145694 0.95734143 0 255 0
0.5407117 -0.098085895 0.95633912 0 255 0
0.54040658 -0.098026097 0.95533681 0 255 0
0.54010153 -0.097966298 0.9543345 0 255 0
0.53979641 -0.097906493 0.95333219 0 255 0
0.53949136 -0.097846694 0.95232987 0 255 0
0.53918624 -0.097786896 0.95132756 0 255 0
0.53888118 -0.097727098 0.95032525 0 255 0
0.53857613 -0.097667292 0.94932294 0 255 0
0.53827101 -0.097607493 0.94832063 0 255 0
0.53796595 -0.097547695 0.94731832 0 255 0
0.53670967 -0.097276837 0.94655198 0 255 0
0.53640515 -0.097217143 0.94555146 0 255 0
0.53705072 -0.0973683 0.94431138 0 255 0
0.53674561 -0.097308494 0.94330907 0 255 0
0.53644055 -0.097248696 0.94230676 0 255 0
0.53613544 -0.097188897 0.94130445 0 255 0
0.53583038 -0.097129099 0.94030219 0 255 0
0.53457791 -0.096858978 0.93954831 0 255 0
0.53427339 -0.096799292 0.93854779 0 255 0
0.53396887 -0.096739598 0.93754727 0 255 0
0.53271854 -0.096469909 0.9368006 0 255 0
0.53241456 -0.096410319 0.93580186 0 255 0
0.53305525 -0.096560515 0.93454576 0 255 0
0.53275067 -0.096500821 0.93354523 0 255 0
0.53244615 -0.096441127 0.93254471 0 255 0
0.53214163 -0.096381441 0.93154418 0 255 0
0.53277957 -0.096531093 0.93027908 0 255 0
0.53247446 -0.096471295 0.92927676 0 255 0
0.5321694 -0.096411496 0.92827451 0 255 0
0.53186435 -0.096351698 0.9272722 0 255 0
0.53249955 -0.096500829 0.92599815 0 255 0
0.5321939 -0.096440919 0.92499411 0 255 0
0.53188831 -0.096381016 0.92399001 0 255 0
0.5417164 -0.099378638 0.95714259 0 255 0
0.5414108 -0.099318728 0.95613849 0 255 0
0.54206085 -0.099472679 0.95491451 0 255 0
0.53984445 -0.098985188 0.95435196 0 255 0
0.54049391 -0.099139012 0.95312619 0 255 0
0.53923428 -0.098865591 0.95234734 0 255 0
0.53892922 -0.098805793 0.95134503 0 255 0
0.53862411 -0.098745987 0.95034271 0 255 0
0.53831905 -0.098686188 0.9493404 0 255 0
0.53896576 -0.098839477 0.94810575 0 255 0
0.53866017 -0.098779574 0.94710165 0 255 0
0.53835452 -0.098719664 0.94609755 0 255 0
0.53804892 -0.098659761 0.94509345 0 255 0
0.53774327 -0.098599851 0.94408935 0 255 0
0.53743768 -0.098539948 0.94308525 0 255 0
0.53713202 -0.098480038 0.94208115 0 255 0
0.53682643 -0.098420136 0.94107705 0 255 0
0.53652078 -0.098360226 0.94007301 0 255 0
0.53526825 -0.09808819 0.93931735 0 255 0
0.53496313 -0.098028392 0.93831503 0 255 0
0.53465807 -0.097968593 0.93731272 0 255 0
0.53340769 -0.097696982 0.93656421 0 255 0
0.53310317 -0.097637288 0.93556368 0 255 0
0.53374285 -0.097789191 0.93430579 0 255 0
0.53343773 -0.097729392 0.93330348 0 255 0
0.53313267 -0.097669594 0.93230116 0 255 0
0.53282762 -0.097609788 0.93129885 0 255 0
0.5325225 -0.09754999 0.93029654 0 255 0
0.5331589 -0.097701252 0.92902792 0 255 0
0.53285331 -0.097641349 0.92802382 0 255 0
0.53254765 -0.097581439 0.92701972 0 255 0
0.53224206 -0.097521536 0.92601568 0 255 0
0.53193641 -0.097461626 0.92501158 0 255 0
