ply
format ascii 1.0
comment PCL generated
element vertex 959
property float x
property float y
property float z
property uchar red
property uchar green
property uchar blue
element camera 0
property float view_px
property float view_py
property float view_pz
property float x_axisx
property float x_axisy
property float x_axisz
property float y_axisx
property float y_axisy
property float y_axisz
property float z_axisx
property float z_axisy
property float z_axisz
property float focal
property float scalex
property float scaley
property float centerx
property float centery
property int viewportx
property int viewporty
property float k1
property float k2
end_header
0.05243364 0.023088098 0.015462518 255 255 255
0.052105069 0.023369282 0.014455259 255 255 255
0.051776499 0.023650467 0.013448 255 255 255
0.051447898 0.023931652 0.012440741 255 255 255
0.051119328 0.024212837 0.011433423 255 255 255
0.046680033 0.02744934 0.0088685751 255 255 255
0.043230951 0.029838413 0.0093392134 255 255 255
0.042906851 0.030115783 0.0083456635 255 255 255
0.04336229 0.029866606 0.0069810152 255 255 255
0.043816656 0.029618442 0.0056128502 255 255 255
0.045048326 0.028845668 0.0038666129 255 255 255
0.043944061 0.029650003 0.0032426119 255 255 255
0.042841017 0.030453354 0.0026220083 255 255 255
0.042515785 0.030731648 0.001625061 255 255 255
0.0064855516 0.055096298 0.018177509 255 255 255
0.0054105222 0.055875689 0.017642796 255 255 255
0.0051116645 0.056131452 0.016726673 255 255 255
0.0048128068 0.056387186 0.01581049 255 255 255
0.0045139194 0.05664295 0.014894307 255 255 255
0.0042150617 0.056898683 0.013978183 255 255 255
0.003916204 0.057154447 0.013062 255 255 255
0.0043895841 0.056889921 0.011752307 255 255 255
0.0040901601 0.057146162 0.010834396 255 255 255
0.0037907362 0.057402402 0.009916544 255 255 255
0.0050325394 0.056621015 0.0082012415 255 255 255
0.0055020154 0.056359857 0.0068795085 255 255 255
0.005970329 0.056099683 0.005554378 255 255 255
0.0056686699 0.056357831 0.004629612 255 255 255
0.0053670108 0.056615978 0.0037048459 255 255 255
0.0050653517 0.056874156 0.0027800798 255 255 255
0.0055308938 0.056616366 0.0014463067 255 255 255
0.0082953274 0.054813147 -0.0011230707 255 255 255
0.0079908669 0.055073708 -0.0020564198 255 255 255
0.040154815 0.034861296 -0.047026694 255 255 255
0.053200603 0.020849973 0.022871435 255 255 255
0.052872568 0.021130651 0.021865904 255 255 255
0.052544564 0.021411359 0.020860374 255 255 255
0.05221653 0.021692067 0.019854784 255 255 255
0.052674681 0.021438152 0.018502116 255 255 255
0.05234611 0.021719337 0.017494857 255 255 255
0.052802563 0.021466911 0.016137064 255 255 255
0.051688939 0.022281706 0.01548034 255 255 255
0.051360369 0.022562891 0.014473081 255 255 255
0.051031798 0.022844076 0.013465822 255 255 255
0.050703198 0.023125261 0.012458563 255 255 255
0.050374627 0.023406446 0.011451304 255 255 255
0.050827712 0.023156881 0.010083139 255 255 255
0.050498575 0.023438543 0.0090741515 255 255 255
0.050169438 0.023720205 0.0080652237 255 255 255
0.045940429 0.026648432 0.0088862777 255 255 255
0.044834644 0.027456582 0.008253634 255 255 255
0.043730021 0.028263688 0.0076243877 255 255 255
0.043404788 0.028541982 0.0066274405 255 255 255
0.043857306 0.028292924 0.0052576065 255 255 255
0.044308722 0.02804476 0.0038843155 255 255 255
0.043205738 0.028850496 0.0032602549 255 255 255
0.042103946 0.029655218 0.0026395917 255 255 255
0.041778713 0.029933512 0.0016426444 255 255 255
0.0058069527 0.054361463 0.018193722 255 255 255
0.004733175 0.055142224 0.017659009 255 255 255
0.0044343174 0.055397987 0.016742885 255 255 255
0.0033622086 0.056177288 0.016213357 255 255 255
0.0015185177 0.057478696 0.016075611 255 255 255
0.001221329 0.057733029 0.015164614 255 255 255
0.00092417002 0.057987332 0.014253616 255 255 255
-0.00014400482 0.058763266 0.013736069 255 255 255
-0.00044062734 0.059017092 0.0128268 255 255 255
0.0031121373 0.056667566 0.009932816 255 255 255
0.0035820603 0.056403607 0.008616209 255 255 255
0.0032820702 0.056660295 0.0076966286 255 255 255
0.0029821098 0.056917012 0.0067769885 255 255 255
0.0026821196 0.057173729 0.005857408 255 255 255
0.0023821294 0.057430446 0.0049378276 255 255 255
0.0020821393 0.057687163 0.0040181875 255 255 255
0.0033140481 0.056909233 0.0022806525 255 255 255
0.0076052845 0.054065913 -0.0011065602 255 255 255
0.0073008239 0.054326475 -0.0020399094 255 255 255
0.0393987 0.034042537 -0.047008574 255 255 255
0.036810905 0.035842568 -0.046670258 255 255 255
0.051209897 0.020840973 0.024571717 255 255 255
0.050882995 0.021120697 0.023569584 255 255 255
0.050556093 0.021400452 0.022567511 255 255 255
0.050229192 0.021680206 0.021565378 255 255 255
0.050687701 0.021423489 0.020217955 255 255 255
0.051145107 0.021167755 0.018867016 255 255 255
0.05160141 0.020912945 0.017512679 255 255 255
0.052056581 0.020659119 0.016154945 255 255 255
0.050944269 0.021475315 0.015498161 255 255 255
0.050615668 0.0217565 0.014490902 255 255 255
0.050287098 0.022037655 0.013483644 255 255 255
0.049958497 0.02231887 0.012476385 255 255 255
0.049629927 0.022600025 0.011469066 255 255 255
0.05008176 0.022349119 0.01010102 255 255 255
0.049752623 0.022630781 0.0090920329 255 255 255
0.049423456 0.022912443 0.0080830455 255 255 255
0.04597953 0.025316864 0.0085379481 255 255 255
0.044096291 0.026657045 0.008271277 255 255 255
0.043770522 0.026935846 0.0072726011 255 255 255
0.043444723 0.027214617 0.0062739253 255 255 255
0.043118954 0.027493417 0.0052752495 255 255 255
0.043569118 0.027243853 0.0039020181 255 255 255
0.042467386 0.028050989 0.0032779574 255 255 255
0.042141616 0.02832976 0.002279222 255 255 255
0.041041642 0.029135376 0.0016602874 255 255 255
0.0546422 0.019939065 -0.0062026978 255 255 255
0.0040558279 0.054408759 0.017675221 255 255 255
0.0037569702 0.054664522 0.016759098 255 255 255
0.0026861429 0.055445194 0.01622951 255 255 255
7.3611736e-05 0.057273805 0.016480029 255 255 255
-0.00022301078 0.057527632 0.01557076 255 255 255
-0.00051963329 0.057781458 0.014661491 255 255 255
-0.00081625581 0.058035314 0.013752162 255 255 255
-0.0011128783 0.05828914 0.012842894 255 255 255
-0.0014095008 0.058542967 0.011933625 255 255 255
-0.0017061234 0.058796793 0.011024296 255 255 255
0.0018346608 0.056445181 0.008113265 255 255 255
0.0015352368 0.056701422 0.0071953535 255 255 255
0.0012358129 0.056957662 0.0062775016 255 255 255
0.00093641877 0.057213873 0.0053595901 255 255 255
0.00063696504 0.057470113 0.0044417381 255 255 255
0.00033757091 0.057726353 0.0035238266 255 255 255
0.03530851 0.035534114 -0.046198666 255 255 255
0.050795913 0.01975894 0.025591552 255 255 255
0.050469011 0.020038694 0.024589419 255 255 255
0.050142109 0.020318449 0.023587286 255 255 255
0.049815208 0.020598173 0.022585213 255 255 255
0.049488336 0.020877928 0.02158314 255 255 255
0.049945563 0.020619839 0.020235717 255 255 255
0.050401658 0.020362735 0.018884838 255 255 255
0.050856739 0.020106554 0.017530501 255 255 255
0.051310629 0.019851357 0.016172767 255 255 255
0.050981492 0.020133018 0.015163779 255 255 255
0.050652355 0.02041468 0.014154792 255 255 255
0.050323218 0.020696372 0.013145804 255 255 255
0.049994081 0.020978034 0.012136817 255 255 255
0.049664944 0.021259695 0.01112783 255 255 255
0.049335778 0.021541357 0.010118902 255 255 255
0.049006641 0.021823019 0.0091099143 255 255 255
0.048677504 0.022104681 0.0081009269 255 255 255
0.047570914 0.022918373 0.0074578524 255 255 255
0.044911742 0.02479434 0.007553637 255 255 255
0.04380852 0.025605172 0.0069208741 255 255 255
0.043482184 0.025884449 0.0059204698 255 255 255
0.043155849 0.026163727 0.0049200654 255 255 255
0.043604136 0.025913328 0.0035451651 255 255 255
0.041729063 0.027251452 0.0032956004 255 255 255
0.041403294 0.027530253 0.0022969246 255 255 255
0.051898777 0.020413846 -0.0040175319 255 255 255
0.053882271 0.019116133 -0.0061845183 255 255 255
0.053546965 0.01940307 -0.0072124004 255 255 255
0.003079623 0.053931057 0.01677531 255 255 255
-0.00030204654 0.056292027 0.017405391 255 255 255
-0.00059863925 0.056545854 0.016496122 255 255 255
-0.0016648471 0.057325035 0.015976846 255 255 255
-0.0019609034 0.057578385 0.015069246 255 255 255
-0.0022569895 0.057831734 0.014161706 255 255 255
-0.0025530457 0.058085114 0.013254106 255 255 255
-0.002849102 0.058338463 0.012346566 255 255 255
-0.0031451583 0.058591813 0.011439025 255 255 255
-0.00037634373 0.056755275 0.0089301467 255 255 255
-0.00067466497 0.057010561 0.0080156922 255 255 255
-0.00097295642 0.057265818 0.0071012378 255 255 255
-0.0012712479 0.057521105 0.0061867833 255 255 255
-0.00080558658 0.057255834 0.0048651099 255 255 255
-0.0011044443 0.057511598 0.0039489865 255 255 255
-0.001403302 0.057767332 0.0030328035 255 255 255
-0.0017021596 0.058023095 0.0021166205 255 255 255
0.00090259314 0.056460172 -0.0036441684 255 255 255
0.00060093403 0.05671832 -0.0045689344 255 255 255
0.00029924512 0.056976467 -0.0054937005 255 255 255
0.034888834 0.034437269 -0.045164824 255 255 255
0.033808589 0.035228461 -0.045727074 255 255 255
0.033477753 0.035511553 -0.046741188 255 255 255
0.050055027 0.018956691 0.025609255 255 255 255
0.049728125 0.019236416 0.024607122 255 255 255
0.049401224 0.01951617 0.023605049 255 255 255
0.049858332 0.019255728 0.022261083 255 255 255
0.049530864 0.019535959 0.021257281 255 255 255
0.049986273 0.019277006 0.01990813 255 255 255
0.050440609 0.019018948 0.018555582 255 255 255
0.050893813 0.018761933 0.017199576 255 255 255
0.050564677 0.019043595 0.016190588 255 255 255
0.05023554 0.019325256 0.015181601 255 255 255
0.049906403 0.019606918 0.014172614 255 255 255
0.049577236 0.01988858 0.013163626 255 255 255
0.049248099 0.020170242 0.012154698 255 255 255
0.048918962 0.020451903 0.011145711 255 255 255
0.048589826 0.020733565 0.010136724 255 255 255
0.048260689 0.021015227 0.0091277361 255 255 255
0.049484938 0.020229071 0.0073903203 255 255 255
0.049154669 0.020511687 0.0063779354 255 255 255
0.0488244 0.020794302 0.0053654909 255 255 255
0.04849413 0.021076947 0.004353106 255 255 255
0.048938364 0.020827591 0.0029696226 255 255 255
0.047833592 0.021642178 0.002328217 255 255 255
0.047503352 0.021924794 0.0013158321 255 255 255
0.050264299 0.020085216 -0.0012015104 255 255 255
0.050704002 0.019839644 -0.0025987625 255 255 255
0.051142663 0.019595057 -0.0039994717 255 255 255
0.052351236 0.018822342 -0.0057849288 255 255 255
0.052016467 0.019108802 -0.0068110824 255 255 255
0.051681727 0.019395262 -0.0078372955 255 255 255
-0.00097429752 0.055564046 0.017421484 255 255 255
-0.0035775006 0.057399511 0.017677009 255 255 255
-0.0038724542 0.057651907 0.016772866 255 255 255
-0.0033996403 0.057378024 0.015477002 255 255 255
-0.0036951303 0.057630897 0.01457119 255 255 255
-0.0039906204 0.057883769 0.013665318 255 255 255
-0.0042861402 0.058136672 0.012759507 255 255 255
-0.0045816302 0.058389515 0.011853635 255 255 255
-0.0033472478 0.057594717 0.010147154 255 255 255
-0.0021151006 0.056801826 0.0084338784 255 255 255
-0.0016490221 0.056533724 0.0071174502 255 255 255
-0.0019473135 0.056789011 0.0062029958 255 255 255
-0.0022456348 0.057044297 0.0052885413 255 255 255
-0.0025439262 0.057299554 0.0043740869 255 255 255
-0.0028422475 0.057554841 0.0034596324 255 255 255
-0.0039015412 0.058330595 0.0029575229 255 255 255
-0.0041992664 0.058585376 0.0020447969 255 255 255
-0.0044970214 0.058840185 0.001132071 255 255 255
-0.0032761097 0.058056891 -0.00061565638 255 255 255
-0.00053986907 0.056238383 -0.0032085776 255 255 255
-0.00084096193 0.056496054 -0.0041316152 255 255 255
-0.0011420548 0.056753725 -0.0050546527 255 255 255
-0.0014431775 0.057011396 -0.0059776902 255 255 255
0.033389628 0.034133464 -0.04469496 255 255 255
0.032311231 0.034925491 -0.045255542 255 255 255
0.031980962 0.035208136 -0.046267927 255 255 255
0.030904293 0.035998762 -0.046823323 255 255 255
0.049314141 0.018154413 0.025626957 255 255 255
0.04898724 0.018434137 0.024624884 255 255 255
0.049443632 0.018171877 0.023282647 255 255 255
0.049116164 0.018452108 0.022278845 255 255 255
0.048788726 0.018732309 0.021274984 255 255 255
0.049242854 0.018471986 0.019925952 255 255 255
0.049695939 0.018212557 0.018573403 255 255 255
0.050147861 0.017954141 0.017217457 255 255 255
0.050598621 0.017696708 0.015858054 255 255 255
0.050268918 0.017978847 0.014847338 255 255 255
0.049939215 0.018260986 0.013836682 255 255 255
0.049609512 0.018543124 0.012825906 255 255 255
0.049279809 0.018825263 0.01181525 255 255 255
0.048950106 0.019107401 0.010804534 255 255 255
0.049396962 0.018853277 0.0094330907 255 255 255
0.049066693 0.019135922 0.0084206462 255 255 255
0.04951188 0.018883258 0.0070441365 255 255 255
0.049181044 0.01916638 0.0060299635 255 255 255
0.048850238 0.019449472 0.0050157905 255 255 255
0.04929322 0.019198716 0.0036323667 255 255 255
0.04973501 0.018948883 0.0022454858 255 255 255
0.049403071 0.019232959 0.0012278557 255 255 255
0.049071103 0.019517034 0.00021028519 255 255 255
0.049510717 0.019269168 -0.0011835098 255 255 255
0.049178213 0.019553721 -0.0022028089 255 255 255
0.049616069 0.019307256 -0.0036017299 255 255 255
0.049282998 0.019592285 -0.0046227574 255 255 255
0.049719244 0.01934728 -0.0060268044 255 255 255
0.049385637 0.019632787 -0.0070495605 255 255 255
0.049052 0.019918293 -0.0080723166 255 255 255
-0.0050135553 0.057204247 0.018081248 255 255 255
-0.0053079426 0.057456166 0.017178833 255 255 255
-0.00560233 0.057708085 0.016276419 255 255 255
-0.0058966875 0.057960004 0.015374005 255 255 255
-0.0054257214 0.057685226 0.014076412 255 255 255
-0.0057206452 0.057937652 0.013172328 255 255 255
-0.006015569 0.058190018 0.012268186 255 255 255
-0.0040195286 0.056866765 0.010163248 255 255 255
-0.0035530329 0.056595862 0.008852005 255 255 255
-0.00308761 0.056325912 0.0075373054 255 255 255
-0.0049093664 0.057628244 0.0074353814 255 255 255
-0.0052059889 0.0578821 0.0065261126 255 255 255
-0.0047417581 0.057613134 0.0052079558 255 255 255
-0.0050389469 0.057867438 0.0042969584 255 255 255
-0.0053361356 0.058121741 0.0033859611 255 255 255
-0.0056333244 0.058376074 0.0024749637 255 255 255
-0.0051718056 0.058109492 0.0011481643 255 255 255
-0.0039534271 0.057323426 -0.00059944391 255 255 255
-0.0034948289 0.057059228 -0.0019347668 255 255 255
-0.0037942529 0.057315469 -0.0028526187 255 255 255
-0.0033372343 0.057052702 -0.0041931272 255 255 255
-0.0028814077 0.056790948 -0.0055370927 255 255 255
-0.0031819344 0.057048142 -0.0064584017 255 255 255
0.034465522 0.0320158 -0.044563115 255 255 255
0.032639861 0.03332153 -0.044677019 255 255 255
0.031562746 0.034114987 -0.045237601 255 255 255
0.031232476 0.034397602 -0.046250045 255 255 255
0.030157059 0.035189599 -0.046805441 255 255 255
0.054716915 0.012975484 0.025316536 255 255 255
0.054386109 0.013258606 0.024302423 255 255 255
0.050139517 0.016263455 0.024971426 255 255 255
0.049811512 0.016544133 0.023965895 255 255 255
0.05026558 0.016281426 0.022620261 255 255 255
0.04993698 0.016562611 0.021613002 255 255 255
0.049608409 0.016843796 0.020605743 255 255 255
0.050060183 0.016583055 0.019253254 255 255 255
0.049731016 0.016864717 0.018244267 255 255 255
0.050960273 0.016064405 0.016537964 255 255 255
0.051408678 0.015806526 0.015175164 255 255 255
0.051077873 0.016089648 0.01416105 255 255 255
0.050747037 0.01637274 0.013146877 255 255 255
0.050416231 0.016655833 0.012132704 255 255 255
0.050085396 0.016938955 0.011118591 255 255 255
0.04975459 0.017222047 0.010104477 255 255 255
0.050199091 0.016967505 0.0087296367 255 255 255
0.049867719 0.017251104 0.0077137351 255 255 255
0.049536318 0.017534673 0.0066978931 255 255 255
0.049978524 0.017282069 0.0053161979 255 255 255
0.049646586 0.017566115 0.0042986274 255 255 255
0.049314648 0.01785019 0.0032810569 255 255 255
0.04898271 0.018134236 0.0022634268 255 255 255
0.048650742 0.018418312 0.0012458563 255 255 255
0.048318803 0.018702388 0.00022828579 255 255 255
0.048757106 0.018453151 -0.0011654496 255 255 255
0.048424602 0.018737674 -0.0021847486 255 255 255
0.048861206 0.018489867 -0.0035836697 255 255 255
0.048528135 0.018774897 -0.0046046376 255 255 255
0.048195094 0.019059926 -0.0056256652 255 255 255
0.047094584 0.019875854 -0.0062619448 255 255 255
0.046762079 0.020160407 -0.0072812438 255 255 255
-0.0056807399 0.056481808 0.018097222 255 255 255
-0.0059751272 0.056733698 0.017194808 255 255 255
-0.0062694848 0.056985617 0.016292393 255 255 255
-0.0065638721 0.057237536 0.015389979 255 255 255
-0.0068582594 0.057489455 0.014487565 255 255 255
-0.007152617 0.057741374 0.01358515 255 255 255
-0.0074470043 0.057993293 0.012682736 255 255 255
-0.0054541826 0.056665421 0.010579586 255 255 255
-0.0049884021 0.05639264 0.009270072 255 255 255
-0.0052849948 0.056646466 0.0083608031 255 255 255
-0.0055816174 0.056900293 0.0074514747 255 255 255
-0.0058782399 0.057154149 0.0065422058 255 255 255
-0.0061748624 0.057407975 0.005632937 255 255 255
-0.0064714849 0.057661802 0.0047236085 255 255 255
-0.0067681074 0.057915628 0.0038143396 255 255 255
-0.0070647299 0.058169454 0.0029050708 255 255 255
-0.0058466196 0.057378769 0.0011643767 255 255 255
-0.0053875744 0.05711174 -0.00016576052 255 255 255
-0.0049296319 0.056845725 -0.0014993548 255 255 255
-0.0044728518 0.056580633 -0.0028364062 255 255 255
-0.0047722757 0.056836843 -0.0037543178 255 255 255
-0.0043171048 0.056573212 -0.0050964952 255 255 255
-0.0038630962 0.056310534 -0.0064421296 255 255 255
0.032967091 0.031713843 -0.044095099 255 255 255
0.0311445 0.033021837 -0.044207275 255 255 255
0.030069232 0.033816189 -0.044766188 255 255 255
0.028995097 0.034609556 -0.045321643 255 255 255
0.02866593 0.034891218 -0.046330631 255 255 255
0.027593464 0.035683125 -0.04688102 255 255 255
0.055412978 0.011049747 0.027033031 255 255 255
0.055081576 0.011333317 0.026017189 255 255 255
0.053967148 0.012163579 0.025334477 255 255 255
0.053636342 0.012446702 0.024320364 255 255 255
0.053305507 0.012729794 0.023306191 255 255 255
0.051412076 0.014103383 0.022968709 255 255 255
0.051082343 0.014385521 0.021958053 255 255 255
0.05075267 0.01466766 0.020947337 255 255 255
0.050422937 0.014949828 0.019936621 255 255 255
0.050093263 0.015231967 0.018925905 255 255 255
0.050542027 0.014971256 0.01756829 255 255 255
0.051767737 0.014169157 0.015858591 255 255 255
0.051436365 0.014452726 0.014842689 255 255 255
0.050328106 0.015277743 0.014178932 255 255 255
0.04999727 0.015560836 0.013164818 255 255 255
0.050442189 0.015303493 0.011795163 255 255 255
0.050110817 0.015587062 0.010779321 255 255 255
0.049779445 0.015870661 0.0097634196 255 255 255
0.049448043 0.01615423 0.0087475777 255 255 255
0.049116671 0.016437829 0.0077317357 255 255 255
0.048785269 0.016721398 0.0067158341 255 255 255
0.049226224 0.016467422 0.0053341985 255 255 255
0.048894256 0.016751468 0.004316628 255 255 255
0.048562318 0.017035544 0.0032990575 255 255 255
0.049001038 0.016783476 0.0019104481 255 255 255
0.048668534 0.017068028 0.00089114904 255 255 255
0.048336029 0.017352551 -0.00012814999 255 255 255
0.048003525 0.017637104 -0.001147449 255 255 255
0.04767102 0.017921656 -0.002166748 255 255 255
0.048106343 0.017672449 -0.0035656095 255 255 255
0.047773272 0.017957479 -0.004586637 255 255 255
0.047440231 0.018242508 -0.005607605 255 255 255
0.046341002 0.019059837 -0.0062438846 255 255 255
0.046008497 0.01934436 -0.0072632432 255 255 255
-0.0063479245 0.055759341 0.018113136 255 255 255
-0.006642282 0.05601126 0.017210722 255 255 255
-0.0069366693 0.056263179 0.016308308 255 255 255
-0.0072310269 0.056515098 0.015405893 255 255 255
-0.0075254142 0.056766987 0.014503479 255 255 255
-0.0078198016 0.057018906 0.013601065 255 255 255
-0.0081141889 0.057270825 0.01269865 255 255 255
-0.0076474249 0.056994766 0.01139605 255 255 255
-0.0064212084 0.056192189 0.0096880794 255 255 255
-0.0067172945 0.056445539 0.0087804794 255 255 255
-0.0070133507 0.056698889 0.0078729391 255 255 255
-0.0065505207 0.056426167 0.0065582991 255 255 255
-0.0068471134 0.056680024 0.0056490302 255 255 255
-0.0071437359 0.05693385 0.0047397017 255 255 255
-0.0074403584 0.057187676 0.0038304329 255 255 255
-0.0077369809 0.057441503 0.002921164 255 255 255
-0.0072775483 0.057171702 0.0015961528 255 255 255
-0.0068191588 0.056902856 0.00026774406 255 255 255
-0.0063619614 0.056634933 -0.0010640621 255 255 255
-0.0059058368 0.056367993 -0.0023993254 255 255 255
-0.0054509044 0.056102008 -0.0037380457 255 255 255
-0.0049969852 0.055836976 -0.0050802231 255 255 255
-0.0052969754 0.056093693 -0.0059998035 255 255 255
-0.0040926635 0.055309832 -0.0077748299 255 255 255
-0.0036421716 0.055047721 -0.0091273189 255 255 255
-0.0039438605 0.055305868 -0.010052025 255 255 255
-0.0034950376 0.055045158 -0.01140964 255 255 255
0.032216042 0.030900568 -0.044077098 255 255 255
0.030395985 0.032211304 -0.044189394 255 255 255
0.029321998 0.033007026 -0.044748366 255 255 255
0.027505934 0.034314364 -0.044848621 255 255 255
0.027177334 0.034595549 -0.045855939 255 255 255
0.026106656 0.03538844 -0.046404481 255 255 255
0.02503714 0.036180288 -0.046949685 255 255 255
0.055444747 0.0096874237 0.026721299 255 255 255
0.054330528 0.010520041 0.02603513 255 255 255
0.053217381 0.011351675 0.025352418 255 255 255
0.052886546 0.011634797 0.024338305 255 255 255
0.05255571 0.011917889 0.023324192 255 255 255
0.05300501 0.011654377 0.021971703 255 255 255
0.051894099 0.012484103 0.021295846 255 255 255
0.051563263 0.012767196 0.020281732 255 255 255
0.05045405 0.013595492 0.019611061 255 255 255
0.050123781 0.013878107 0.018598616 255 255 255
0.049793541 0.014160722 0.017586172 255 255 255
0.051793367 0.012812108 0.015527964 255 255 255
0.051461399 0.013096184 0.014510393 255 255 255
0.050353914 0.013923049 0.013844848 255 255 255
0.050022542 0.014206618 0.012829006 255 255 255
0.049691141 0.014490217 0.011813104 255 255 255
0.049359769 0.014773786 0.010797262 255 255 255
0.049028367 0.015057385 0.0097814202 255 255 255
0.048696995 0.015340954 0.0087655187 255 255 255
0.048365623 0.015624553 0.0077496767 255 255 255
0.048805833 0.0153687 0.0063697696 255 255 255
0.048473895 0.015652746 0.0053521991 255 255 255
0.049682975 0.014859885 0.0035995841 255 255 255
0.048579961 0.015682906 0.0029477477 255 255 255
0.048247457 0.015967458 0.0019285083 255 255 255
0.047914952 0.016252011 0.00090920925 255 255 255
0.048350692 0.015999973 -0.00048446655 255 255 255
0.048017621 0.016285002 -0.0015054941 255 255 255
0.04768455 0.016570032 -0.0025265217 255 255 255
0.047351509 0.016855061 -0.0035475492 255 255 255
0.047784507 0.016605437 -0.0049498677 255 255 255
0.04745087 0.016890943 -0.0059725642 255 255 255
0.046352297 0.017710119 -0.0066105723 255 255 255
0.046019226 0.017995149 -0.0076315999 255 255 255
0.045686156 0.018280178 -0.0086526275 255 255 255
-0.0073094666 0.055288792 0.017226696 255 255 255
-0.0076038539 0.055540711 0.016324282 255 255 255
-0.0078982115 0.05579263 0.015421867 255 255 255
-0.0081925988 0.056044549 0.014519453 255 255 255
-0.0084869862 0.056296468 0.013617039 255 255 255
-0.0087813437 0.056548387 0.012714624 255 255 255
-0.009075731 0.056800276 0.01181221 255 255 255
-0.0078514814 0.055994451 0.010106027 255 255 255
-0.0081469715 0.056247324 0.0092001557 255 255 255
-0.0076843202 0.055972308 0.0078889728 255 255 255
-0.0079803765 0.056225657 0.0069814324 255 255 255
-0.0082764328 0.056479007 0.0060738325 255 255 255
-0.0078159869 0.056205899 0.004755795 255 255 255
-0.0081126094 0.056459725 0.0038465261 255 255 255
-0.0084092319 0.056713551 0.0029371977 255 255 255
-0.0087058544 0.056967378 0.0020279288 255 255 255
-0.0082482398 0.056696683 0.00070130825 255 255 255
-0.007791698 0.056426913 -0.000628829 255 255 255
-0.0073363185 0.056158096 -0.0019623637 255 255 255
-0.0068820417 0.055890292 -0.0032992959 255 255 255
-0.0064289272 0.055623412 -0.0046396852 255 255 255
-0.0067283511 0.055879623 -0.0055575967 255 255 255
-0.0055259466 0.055092543 -0.0073308349 255 255 255
-0.00507617 0.054828525 -0.0086815357 255 255 255
-0.0046275556 0.054565519 -0.010035694 255 255 255
-0.0049292147 0.054823667 -0.01096046 255 255 255
0.026761234 0.033507973 -0.044830859 255 255 255
0.024949908 0.034816206 -0.044924319 255 255 255
0.02462247 0.035096437 -0.045928121 255 255 255
0.023554772 0.035889208 -0.046471596 255 255 255
0.022488207 0.036681026 -0.047011673 255 255 255
0.054692417 0.0088727772 0.026739299 255 255 255
0.053579479 0.0097067654 0.026053131 255 255 255
0.053248107 0.0099903345 0.025037229 255 255 255
0.052136779 0.010822892 0.024356246 255 255 255
0.051805943 0.011105984 0.023342073 255 255 255
0.052253932 0.010841101 0.021989644 255 255 255
0.05192256 0.011124671 0.020973802 255 255 255
0.051591188 0.01140824 0.01995796 255 255 255
0.051259786 0.011691839 0.018942118 255 255 255
0.050928414 0.011975437 0.017926216 255 255 255
0.050597012 0.012259007 0.016910374 255 255 255
0.051816434 0.011452347 0.015197337 255 255 255
0.05225876 0.011192262 0.013827801 255 255 255
0.050377131 0.012565583 0.013510764 255 255 255
0.050045192 0.012849659 0.012493193 255 255 255
0.051259577 0.012047321 0.010764778 255 255 255
0.050926507 0.01233235 0.0097437501 255 255 255
0.050593436 0.012617379 0.0087227225 255 255 255
0.049488902 0.013444155 0.0080623031 255 255 255
0.049156398 0.013728708 0.007043004 255 255 255
0.049594253 0.013472438 0.0056596398 255 255 255
0.049261183 0.013757467 0.0046386123 255 255 255
0.049697399 0.013502628 0.0032501221 255 255 255
0.048595041 0.014327496 0.0025966167 255 255 255
0.04826197 0.014612526 0.0015755892 255 255 255
0.0479289 0.014897555 0.00055462122 255 255 255
0.047595829 0.015182585 -0.00046640635 255 255 255
0.047262758 0.015467614 -0.0014874339 255 255 255
0.046929687 0.015752614 -0.0025084615 255 255 255
0.046596646 0.016037643 -0.003529489 255 255 255
0.046263576 0.016322672 -0.0045505166 255 255 255
0.045930505 0.016607702 -0.0055714846 255 255 255
0.045597434 0.016892701 -0.0065925121 255 255 255
0.044501305 0.017712325 -0.0072271228 255 255 255
0.0441688 0.017996848 -0.0082464814 255 255 255
-0.0079766214 0.054566354 0.01724267 255 255 255
-0.0082710087 0.054818243 0.016340256 255 255 255
-0.0085653961 0.055070162 0.015437841 255 255 255
-0.0088597834 0.055322081 0.014535427 255 255 255
-0.0091541409 0.055574 0.013633013 255 255 255
-0.0094485283 0.055825919 0.012730598 255 255 255
-0.0097428858 0.056077838 0.011828184 255 255 255
-0.010037273 0.056329757 0.01092577 255 255 255
-0.0095741749 0.05605188 0.0096197724 255 255 255
-0.0091122091 0.055774987 0.008310318 255 255 255
-0.0094076991 0.056027859 0.0074045062 255 255 255
-0.008947432 0.055752426 0.0060898662 255 255 255
-0.0084882677 0.055477917 0.0047718883 255 255 255
-0.0095395446 0.056259125 0.0042747855 255 255 255
-0.0098356009 0.056512505 0.0033671856 255 255 255
-0.0093781054 0.056239426 0.0020440221 255 255 255
-0.0096747279 0.056493253 0.0011346936 255 255 255
-0.009218961 0.056221664 -0.00019359589 255 255 255
-0.0095161498 0.056475967 -0.0011045933 255 255 255
-0.0090619922 0.056205809 -0.002438128 255 255 255
-0.0086089969 0.055936575 -0.0037750602 255 255 255
-0.0081571043 0.055668324 -0.0051154494 255 255 255
-0.0069567263 0.054877967 -0.0068868995 255 255 255
-0.0057586133 0.054089576 -0.008665204 255 255 255
-0.0053112209 0.05382517 -0.010019362 255 255 255
-0.0056129098 0.054083318 -0.010944068 255 255 255
0.02346769 0.034527451 -0.044449627 255 255 255
0.022401273 0.035321593 -0.044993222 255 255 255
0.022074938 0.035600871 -0.045993567 255 255 255
0.02101016 0.036393613 -0.046531916 255 255 255
0.053940117 0.0080581009 0.0267573 255 255 255
0.052828431 0.0088934898 0.026071072 255 255 255
0.052497059 0.0091770589 0.02505523 255 255 255
0.052165657 0.0094606578 0.024039328 255 255 255
0.051834285 0.0097442269 0.023023486 255 255 255
0.051502913 0.010027826 0.022007644 255 255 255
0.051171511 0.010311395 0.020991802 255 255 255
0.050840139 0.010594994 0.01997596 255 255 255
0.050508738 0.010878563 0.018960059 255 255 255
0.050177366 0.011162132 0.017944217 255 255 255
0.049845964 0.011445731 0.016928375 255 255 255
0.051062852 0.01063633 0.015215397 255 255 255
0.052277535 0.0098288357 0.013495564 255 255 255
0.051943898 0.010114342 0.012472808 255 255 255
0.053155184 0.0093097389 0.010742724 255 255 255
0.052820444 0.0095961988 0.0097165704 255 255 255
0.052485675 0.0098826587 0.0086903572 255 255 255
0.052150935 0.010169119 0.0076642036 255 255 255
0.051816195 0.010455579 0.0066379905 255 255 255
0.051481426 0.010742038 0.0056118369 255 255 255
0.051146686 0.011028498 0.0045856833 255 255 255
0.050811946 0.011314958 0.0035595298 255 255 255
0.050477177 0.011601418 0.0025333166 255 255 255
0.048607618 0.012969345 0.0022454858 255 255 255
0.047507107 0.013795137 0.0015936494 255 255 255
0.047174037 0.014080137 0.00057262182 255 255 255
0.047606736 0.013825864 -0.00082272291 255 255 255
0.046507925 0.014650196 -0.0014693737 255 255 255
0.046174854 0.014935225 -0.0024904013 255 255 255
0.045841783 0.015220255 -0.0035114288 255 255 255
0.045508713 0.015505254 -0.0045323968 255 255 255
0.045175642 0.015790284 -0.0055534244 255 255 255
0.044842571 0.016075313 -0.0065744519 255 255 255
0.043747723 0.016896278 -0.0072091222 255 255 255
0.043415219 0.01718083 -0.0082284212 255 255 255
-0.008643806 0.053843886 0.017258584 255 255 255
-0.0089381933 0.054095805 0.01635617 255 255 255
-0.0092325509 0.054347724 0.015453815 255 255 255
-0.0095269382 0.054599643 0.014551401 255 255 255
-0.0098213255 0.054851562 0.013648987 255 255 255
-0.010115713 0.055103451 0.012746572 255 255 255
-0.01041007 0.05535537 0.011844158 255 255 255
-0.010704458 0.055607289 0.010941744 255 255 255
-0.010998815 0.055859208 0.01003933 255 255 255
-0.010537565 0.055580467 0.0087316036 255 255 255
-0.010832489 0.055832833 0.0078274608 255 255 255
-0.010372907 0.055555522 0.0065146685 255 255 255
-0.010668427 0.055808395 0.0056087971 255 255 255
-0.010210544 0.055532545 0.0042908192 255 255 255
-0.0105066 0.055785894 0.0033832192 255 255 255
-0.010802656 0.056039244 0.0024756789 255 255 255
-0.010347009 0.055765301 0.0011507869 255 255 255
-0.010643631 0.056019127 0.00024151802 255 255 255
-0.010940224 0.056272954 -0.00066775084 255 255 255
-0.010486841 0.056000948 -0.0019994974 255 255 255
-0.010034531 0.055729866 -0.0033347011 255 255 255
-0.0095833838 0.055459768 -0.0046733022 255 255 255
-0.0083850026 0.054666191 -0.0064429641 255 255 255
-0.0079365969 0.054398477 -0.0077902079 255 255 255
-0.0067421496 0.053608268 -0.0095719099 255 255 255
-0.0062966049 0.053342968 -0.010927737 255 255 255
0.022726804 0.033725172 -0.044431925 255 255 255
0.021661669 0.034520715 -0.04497546 255 255 255
0.020597607 0.035315305 -0.045515597 255 255 255
0.020271808 0.035594106 -0.046514273 255 255 255
0.01847291 0.036901534 -0.0465855 255 255 255
0.053187788 0.0072434545 0.026775301 255 255 255
0.052855849 0.0075275302 0.02575773 255 255 255
0.052523911 0.0078115761 0.02474016 255 255 255
0.052191973 0.0080956519 0.023722589 255 255 255
0.051860005 0.0083797276 0.022705019 255 255 255
0.051528066 0.0086637735 0.021687448 255 255 255
0.051971793 0.0083975792 0.020329893 255 255 255
0.05086419 0.0092318952 0.019652247 255 255 255
0.050532252 0.0095159709 0.018634677 255 255 255
0.051748246 0.0087023675 0.016926944 255 255 255
0.052188665 0.0084390342 0.015559137 255 255 255
0.051855028 0.0087245405 0.014536381 255 255 255
0.052293688 0.0084626675 0.013163447 255 255 255
0.052731246 0.0082017183 0.011786997 255 255 255
0.052396506 0.0084881783 0.010760844 255 255 255
0.052832365 0.0082287192 0.0093793273 255 255 255
0.052497059 0.008515656 0.0083513856 255 255 255
0.052161753 0.0088025928 0.0073235035 255 255 255
0.051826447 0.0090895593 0.0062956214 255 255 255
0.051491112 0.0093764961 0.0052677393 255 255 255
0.051155806 0.0096634328 0.0042398572 255 255 255
0.0508205 0.0099503696 0.0032119155 255 255 255
0.050485194 0.010237306 0.002184093 255 255 255
0.050149888 0.010524243 0.0011561513 255 255 255
0.04904902 0.011352807 0.0004991293 255 255 255
0.04871428 0.011639267 -0.00052702427 255 255 255
0.047615051 0.012466431 -0.0011789203 255 255 255
0.046516985 0.013292581 -0.0018273592 255 255 255
0.046183378 0.013578087 -0.0028501153 255 255 255
0.045849741 0.013863593 -0.0038728118 255 255 255
0.045516104 0.0141491 -0.0048955679 255 255 255
0.045182496 0.014434606 -0.005918324 255 255 255
0.044087708 0.015257895 -0.0065563917 255 255 255
0.043754637 0.015542924 -0.0075774193 255 255 255
0.043421596 0.015827954 -0.0085984468 255 255 255
0.043088526 0.016112953 -0.0096194148 255 255 255
-0.0096053779 0.053373367 0.016372144 255 255 255
-0.0098997355 0.053625256 0.01546973 255 255 255
-0.010194123 0.053877175 0.014567316 255 255 255
-0.01048848 0.054129094 0.013664901 255 255 255
-0.010782868 0.054381013 0.012762487 255 255 255
-0.011077255 0.054632932 0.011860073 255 255 255
-0.011371613 0.054884821 0.010957658 255 255 255
-0.011666 0.05513674 0.010055244 255 255 255
-0.011960387 0.055388659 0.0091528296 255 255 255
-0.011500925 0.055109024 0.0078434944 255 255 255
-0.011795878 0.05536142 0.0069393516 255 255 255
-0.012090832 0.055613786 0.0060352087 255 255 255
-0.011633635 0.055336058 0.0047189593 255 255 255
-0.011929125 0.055588931 0.0038131475 255 255 255
-0.012224615 0.055841804 0.0029072762 255 255 255
-0.011769712 0.055566043 0.0015841722 255 255 255
-0.011315882 0.055291176 0.00025761127 255 255 255
-0.011612505 0.055545002 -0.00065165758 255 255 255
-0.011909097 0.055798829 -0.001560986 255 255 255
-0.011457562 0.055525929 -0.0028944016 255 255 255
-0.011007041 0.055253953 -0.0042312741 255 255 255
-0.010557741 0.05498293 -0.0055716038 255 255 255
-0.0093630254 0.054187566 -0.0073446631 255 255 255
-0.0081704855 0.053394139 -0.009124577 255 255 255
0.0212484 0.03344056 -0.043957412 255 255 255
0.020185024 0.034236997 -0.044499218 255 255 255
0.019122839 0.035032451 -0.045037687 255 255 255
0.018797636 0.035310775 -0.046034634 255 255 255
0.01773712 0.036104769 -0.046567917 255 255 255
0.053213269 0.005874306 0.026463687 255 255 255
0.052880734 0.0061588585 0.025444448 255 255 255
0.053324848 0.0058898032 0.024092138 255 255 255
0.052991807 0.0061748326 0.02307111 255 255 255
0.052658737 0.006459862 0.022050083 255 255 255
0.052325666 0.0067448914 0.021029055 255 255 255
0.051992595 0.007029891 0.020008028 255 255 255
0.051659524 0.0073149204 0.01898706 255 255 255
0.052099794 0.0070492327 0.01762265 255 255 255
0.052538842 0.0067845583 0.016254902 255 255 255
0.052204669 0.0070705414 0.015230477 255 255 255
0.053413659 0.0062580407 0.013509035 255 255 255
0.053849399 0.0059961975 0.012130916 255 255 255
0.053513527 0.0062836111 0.011101365 255 255 255
0.053947598 0.0060232282 0.0097180605 255 255 255
0.052841783 0.0068584681 0.0090421438 255 255 255
0.05250591 0.0071458817 0.0080125332 255 255 255
0.052170038 0.0074333251 0.0069829226 255 255 255
0.051834166 0.0077207386 0.0059533119 255 255 255
0.051498294 0.0080081522 0.0049237013 255 255 255
0.051162422 0.0082955658 0.0038940907 255 255 255
0.05082655 0.0085830092 0.00286448 255 255 255
0.050490677 0.0088704228 0.0018348694 255 255 255
0.050154835 0.0091578364 0.00080525875 255 255 255
0.049818963 0.0094452798 -0.00022435188 255 255 255
0.049483091 0.0097326934 -0.0012539625 255 255 255
0.049147218 0.010020107 -0.0022835732 255 255 255
0.048048705 0.010849118 -0.0029371977 255 255 255
0.046189278 0.012218237 -0.0032097101 255 255 255
0.045855075 0.01250422 -0.0042341352 255 255 255
0.046281844 0.012250066 -0.0056397319 255 255 255
0.045186728 0.013076186 -0.0062830448 255 255 255
0.043332845 0.014440507 -0.0065383315 255 255 255
0.042999804 0.014725506 -0.0075593591 255 255 255
0.042666733 0.015010536 -0.0085803866 255 255 255
0.042333663 0.015295565 -0.0096014142 255 255 255
0.044273347 0.013968825 -0.011796772 255 255 255
-0.01056692 0.052902818 0.015485704 255 255 255
-0.010861278 0.053154737 0.01458329 255 255 255
-0.011155665 0.053406626 0.013680875 255 255 255
-0.012960702 0.054729193 0.013575137 255 255 255
-0.013253957 0.054980159 0.012676179 255 255 255
-0.012038797 0.054162383 0.010973632 255 255 255
-0.012333184 0.054414302 0.010071218 255 255 255
-0.012627542 0.054666191 0.0091688037 255 255 255
-0.012921929 0.05491811 0.0082663894 255 255 255
-0.013216317 0.055170029 0.007363975 255 255 255
-0.013510674 0.055421948 0.0064615607 255 255 255
-0.013054192 0.055142373 0.0051470399 255 255 255
-0.013349146 0.055394769 0.0042429566 255 255 255
-0.012894332 0.055116594 0.0029233098 255 255 255
-0.013189822 0.055369467 0.0020174384 255 255 255
-0.012736738 0.055092782 0.00069266558 255 255 255
-0.013032824 0.055346161 -0.00021493435 255 255 255
-0.012581378 0.055070877 -0.0015448928 255 255 255
-0.012878001 0.055324703 -0.0024541616 255 255 255
-0.012428254 0.05505091 -0.0037893057 255 255 255
-0.012725443 0.055305213 -0.0047003031 255 255 255
-0.011532128 0.054506123 -0.0064698458 255 255 255
-0.010341078 0.053708971 -0.0082463026 255 255 255
-0.010640502 0.053965211 -0.0091641545 255 255 255
0.01977247 0.03315869 -0.043482959 255 255 255
0.018711001 0.033956021 -0.044023097 255 255 255
0.017650634 0.034752339 -0.044559836 255 255 255
0.017325968 0.035030186 -0.045555055 255 255 255
0.0162673 0.035825104 -0.046086669 255 255 255
0.056342125 0.002278775 0.024834037 255 255 255
0.054454952 0.0036765635 0.02446866 255 255 255
0.053345412 0.0045174658 0.023777187 255 255 255
0.053011805 0.0048029721 0.022754431 255 255 255
0.052678168 0.0050884485 0.021731675 255 255 255
0.052344531 0.0053739548 0.020708978 255 255 255
0.052010924 0.005659461 0.019686282 255 255 255
0.052449822 0.0053924322 0.018321931 255 255 255
0.053659648 0.0045742989 0.01661092 255 255 255
0.053324342 0.0048612654 0.015582979 255 255 255
0.052989036 0.0051482022 0.014555097 255 255 255
0.054194391 0.0043338835 0.012830317 255 255 255
0.053857952 0.004621774 0.011798978 255 255 255
0.053521544 0.0049096644 0.010767639 255 255 255
0.053185105 0.0051975846 0.0097362995 255 255 255
0.052848667 0.0054854751 0.0087049603 255 255 255
0.052512258 0.0057733953 0.0076736808 255 255 255
0.05217582 0.0060612857 0.0066423416 255 255 255
0.051839381 0.0063491762 0.0056110024 255 255 255
0.051502943 0.0066370964 0.0045796633 255 255 255
0.051166505 0.0069249868 0.0035483241 255 255 255
0.050830096 0.0072128773 0.0025170445 255 255 255
0.050493658 0.0075007975 0.0014857054 255 255 255
0.050157219 0.0077886879 0.00045436621 255 255 255
0.049057752 0.0086209774 -0.00020617247 255 255 255
0.04872188 0.0089084208 -0.0012357831 255 255 255
0.048386008 0.0091958344 -0.0022653937 255 255 255
0.048050135 0.009483248 -0.0032950044 255 255 255
0.04695347 0.010313153 -0.00394696 255 255 255
0.046618134 0.01060009 -0.0049747825 255 255 255
0.046282828 0.010887027 -0.0060027242 255 255 255
0.045947522 0.011173993 -0.0070306063 255 255 255
0.045612216 0.01146093 -0.0080584884 255 255 255
0.04527691 0.011747867 -0.0090863705 255 255 255
0.044184178 0.012574375 -0.0097262859 255 255 255
0.043849438 0.012860835 -0.010752439 255 255 255
0.042002082 0.014224559 -0.010995805 255 255 255
0.041668445 0.014510065 -0.012018502 255 255 255
-0.011528462 0.052432269 0.014599264 255 255 255
-0.014086723 0.054295719 0.014886558 255 255 255
-0.014379412 0.054546207 0.013989329 255 255 255
-0.014672101 0.054796666 0.013092101 255 255 255
-0.014211863 0.054511428 0.011793077 255 255 255
-0.014505118 0.054762363 0.01089412 255 255 255
-0.01404655 0.054478526 0.0095899701 255 255 255
-0.014340371 0.054729968 0.0086892843 255 255 255
-0.013883501 0.054447591 0.0073799491 255 255 255
-0.014177859 0.05469951 0.0064775348 255 255 255
-0.014472246 0.0549514 0.0055751204 255 255 255
-0.014017582 0.05467093 0.0042589307 255 255 255
-0.014312506 0.054923326 0.0033547878 255 255 255
-0.01385954 0.054644257 0.0020334721 255 255 255
-0.013407737 0.054366201 0.00070869923 255 255 255
-0.013703793 0.054619581 -0.0001989007 255 255 255
-0.013253629 0.054342926 -0.0015287995 255 255 255
-0.013550252 0.054596752 -0.002438128 255 255 255
-0.013846874 0.054850578 -0.0033473969 255 255 255
-0.014143497 0.055104405 -0.0042566657 255 255 255
-0.012952149 0.054302126 -0.0060244203 255 255 255
-0.013249874 0.054556906 -0.0069372058 255 255 255
-0.011319101 0.053230375 -0.0091479421 255 255 255
0.019034117 0.032359183 -0.043465257 255 255 255
0.017239481 0.033677757 -0.043546975 255 255 255
0.016914815 0.033955604 -0.044542253 255 255 255
0.015856862 0.034752369 -0.045075595 255 255 255
0.015532762 0.035029739 -0.046069086 255 255 255
0.015208691 0.03530708 -0.047062576 255 255 255
0.055582196 0.0014558733 0.024852216 255 255 255
0.05524686 0.00174281 0.023824275 255 255 255
0.054137468 0.0025860369 0.023129404 255 255 255
0.053802729 0.0028724968 0.02210319 255 255 255
0.054240942 0.0026036203 0.020740628 255 255 255
0.053133219 0.0034454167 0.020050883 255 255 255
0.05279848 0.0037318766 0.01902467 255 255 255
0.053235024 0.0034644604 0.017656982 255 255 255
0.053670436 0.0031979382 0.016285837 255 255 255
0.053334594 0.0034853518 0.015256226 255 255 255
0.052998722 0.0037727952 0.014226615 255 255 255
0.054200977 0.0029562116 0.012500107 255 255 255
0.053863972 0.0032446086 0.011467099 255 255 255
0.053526998 0.0035329759 0.010434031 255 255 255
0.053189993 0.003821373 0.0094010234 255 255 255
0.052086174 0.0046598017 0.0087231994 255 255 255
0.051749766 0.004947722 0.0076919198 255 255 255
0.051413327 0.0052356124 0.0066605806 255 255 255
0.051076889 0.0055235028 0.0056292415 255 255 255
0.051505029 0.0052632689 0.0042357445 255 255 255
0.051168054 0.005551666 0.0032027364 255 255 255
0.050067604 0.0063872039 0.0025352836 255 255 255
0.049731165 0.0066751242 0.0015039444 255 255 255
0.05015707 0.0064167976 0.00010353327 255 255 255
0.050581843 0.006159395 -0.0013002753 255 255 255
0.04872188 0.0075388253 -0.0015900731 255 255 255
0.048385441 0.0078267157 -0.0026213527 255 255 255
0.048049003 0.0081146359 -0.0036527514 255 255 255
0.047712594 0.0084025264 -0.004684031 255 255 255
0.04661718 0.0092338026 -0.0053359866 255 255 255
0.045522898 0.010064125 -0.0059845448 255 255 255
0.045187593 0.010351062 -0.0070124269 255 255 255
0.044852287 0.010638028 -0.008040309 255 255 255
0.044516951 0.010924965 -0.0090681911 255 255 255
0.0434255 0.011752844 -0.0097081065 255 255 255
0.043090761 0.012039304 -0.01073432 255 255 255
0.041245937 0.01340577 -0.010977685 255 255 255
0.04091233 0.013691276 -0.012000442 255 255 255
0.043594331 0.011820614 -0.014602482 255 255 255
-0.014750093 0.053577393 0.014902472 255 255 255
-0.015042782 0.053827852 0.014005184 255 255 255
-0.01533547 0.054078341 0.013107955 255 255 255
-0.014876485 0.053791702 0.011808991 255 255 255
-0.01516974 0.054042667 0.010910034 255 255 255
-0.015462995 0.054293603 0.010011017 255 255 255
-0.015756249 0.054544568 0.0091120601 255 255 255
-0.015300095 0.054260314 0.007804513 255 255 255
-0.015593916 0.054511756 0.0069038272 255 255 255
-0.015887737 0.054763168 0.0060030818 255 255 255
-0.016181558 0.05501461 0.0051024556 255 255 255
-0.01647535 0.055266052 0.0042017102 255 255 255
-0.015275896 0.054451883 0.0024666786 255 255 255
-0.014824778 0.05417195 0.0011436343 255 255 255
-0.015120268 0.054424822 0.00023776293 255 255 255
-0.014670849 0.054146349 -0.0010904074 255 255 255
-0.014222503 0.0538688 -0.0024220347 255 255 255
-0.014519125 0.054122627 -0.0033313036 255 255 255
-0.014815748 0.054376453 -0.0042405725 255 255 255
-0.01511237 0.054630309 -0.0051499009 255 255 255
-0.015408993 0.054884136 -0.0060591698 255 255 255
-0.015705615 0.055137962 -0.0069684386 255 255 255
0.016503692 0.032880992 -0.043529391 255 255 255
0.015446424 0.033679634 -0.044064462 255 255 255
0.015122324 0.033957005 -0.045058012 255 255 255
0.014798254 0.034234345 -0.046051502 255 255 255
0.014474154 0.034511685 -0.047045052 255 255 255
0.011228591 0.036864579 -0.046170413 255 255 255
0.055596203 7.429719e-05 0.024540901 255 255 255
0.05526033 0.00036171079 0.023511291 255 255 255
0.054151624 0.0012068152 0.022814572 255 255 255
0.053816319 0.0014937818 0.021786749 255 255 255
0.054252714 0.0012239814 0.020422459 255 255 255
0.054688007 0.00095513463 0.01905477 255 255 255
0.054351598 0.0012430251 0.018023431 255 255 255
0.05401516 0.0015309155 0.016992092 255 255 255
0.053678721 0.0018188357 0.015960753 255 255 255
0.054111212 0.001552403 0.014584482 255 255 255
0.053774208 0.0018408 0.013551414 255 255 255
0.054204971 0.0015757978 0.012170017 255 255 255
0.053867429 0.0018646419 0.011135221 255 255 255
0.053529888 0.0021535158 0.010100484 255 255 255
0.053192317 0.0024423897 0.0090656877 255 255 255
0.052089244 0.003282696 0.0083861947 255 255 255
0.051752269 0.0035710931 0.007353127 255 255 255
0.051415265 0.0038594604 0.0063201189 255 255 255
0.05107829 0.0041478574 0.0052870512 255 255 255
0.051504582 0.0038866699 0.0038918853 255 255 255
0.051167011 0.0041755438 0.002857089 255 255 255
0.05082947 0.0044644177 0.0018223524 255 255 255
0.050491899 0.0047532618 0.00078755617 255 255 255
0.05091542 0.004494518 -0.00061619282 255 255 255
0.050577313 0.0047838688 -0.001652658 255 255 255
0.049479246 0.0056198537 -0.0023167133 255 255 255
0.048382342 0.0064549148 -0.0029773116 255 255 255
0.04728654 0.0072889626 -0.0036345124 255 255 255
0.046950102 0.0075768828 -0.004665792 255 255 255
0.045855969 0.0084095299 -0.0053177476 255 255 255
0.045520097 0.0086969435 -0.0063473582 255 255 255
0.044427633 0.0095281601 -0.0069942474 255 255 255
0.044092327 0.0098150969 -0.0080221295 255 255 255
0.043757021 0.010102034 -0.0090500116 255 255 255
0.043421715 0.01038897 -0.010077894 255 255 255
0.042332083 0.011217773 -0.01071614 255 255 255
0.041997343 0.011504233 -0.011742294 255 255 255
0.041662604 0.011790693 -0.012768507 255 255 255
0.04283312 0.010996312 -0.014584243 255 255 255
-0.015413433 0.052859068 0.014918327 255 255 255
-0.015706122 0.053109556 0.014021099 255 255 255
-0.015247852 0.05282104 0.012723863 255 255 255
-0.015541106 0.053072006 0.011824906 255 255 255
-0.015834361 0.053322971 0.010925949 255 255 255
-0.016127616 0.053573906 0.010026932 255 255 255
-0.016420871 0.053824872 0.0091279745 255 255 255
-0.016714126 0.054075837 0.0082289577 255 255 255
-0.017007381 0.054326773 0.0073300004 255 255 255
-0.017300665 0.054577738 0.0064310431 255 255 255
-0.01759392 0.054828674 0.0055320859 255 255 255
-0.017887175 0.055079639 0.0046331286 255 255 255
-0.016689718 0.054262251 0.0028998256 255 255 255
-0.016984105 0.05451414 0.0019974113 255 255 255
-0.017278463 0.054766059 0.0010949969 255 255 255
-0.016829163 0.054485232 -0.00022977591 255 255 255
-0.016380966 0.054205358 -0.0015578866 255 255 255
-0.015933931 0.053926468 -0.0028894544 255 255 255
-0.016230017 0.054179817 -0.0037970543 255 255 255
-0.016526073 0.054433167 -0.0047046542 255 255 255
-0.016081244 0.054156154 -0.0060430765 255 255 255
-0.016377866 0.054410011 -0.0069523454 255 255 255
-0.016674489 0.054663837 -0.0078616738 255 255 255
0.014711916 0.03288424 -0.044046938 255 255 255
0.014387816 0.03316161 -0.045040429 255 255 255
0.014063716 0.033438951 -0.046033919 255 255 255
0.010820985 0.035799265 -0.045166314 255 255 255
0.0097700357 0.036594957 -0.045686007 255 255 255
0.0094487369 0.036869913 -0.046670914 255 255 255
0.055607677 -0.0013100505 0.024229646 255 255 255
0.055271238 -0.0010221601 0.023198307 255 255 255
0.054163247 -0.00017517805 0.022499919 255 255 255
0.053827375 0.00011226535 0.021470308 255 255 255
0.053491503 0.00039967895 0.020440698 255 255 255
0.054695398 -0.00042816997 0.018734992 255 255 255
0.054358423 -0.00013977289 0.017701924 255 255 255
0.054790169 -0.0004080832 0.016327381 255 255 255
0.054452628 -0.00011920929 0.015292585 255 255 255
0.054115057 0.00016966462 0.014257848 255 255 255
0.053777516 0.00045850873 0.013223052 255 255 255
0.053439945 0.00074738264 0.012188315 255 255 255
0.053102404 0.0010362267 0.011153519 255 255 255
