ply
format ascii 1.0
comment PCL generated
element vertex 1036
property float x
property float y
property float z
property uchar red
property uchar green
property uchar blue
element camera 0
property float view_px
property float view_py
property float view_pz
property float x_axisx
property float x_axisy
property float x_axisz
property float y_axisx
property float y_axisy
property float y_axisz
property float z_axisx
property float z_axisy
property float z_axisz
property float focal
property float scalex
property float scaley
property float centerx
property float centery
property int viewportx
property int viewporty
property float k1
property float k2
end_header
0.65175939 0.087170824 0.94948834 255 255 255
0.6518687 0.087147936 0.94811982 255 255 255
0.6519779 0.087125048 0.94675136 255 255 255
0.65208721 0.08710216 0.94538283 255 255 255
0.65219641 0.087079272 0.94401437 255 255 255
0.6523056 0.087056383 0.94264585 255 255 255
0.65241492 0.087033495 0.94127738 255 255 255
0.65252411 0.087010607 0.93990892 255 255 255
0.65263331 0.086987719 0.9385404 255 255 255
0.65274262 0.086964831 0.93717194 255 255 255
0.65486491 0.087120876 0.93572384 255 255 255
0.65497446 0.087097928 0.93435162 255 255 255
0.65508401 0.087074965 0.9329794 255 255 255
0.65720761 0.087230787 0.93151641 255 255 255
0.65530312 0.08702907 0.93023497 255 255 255
0.65541267 0.087006122 0.92886275 255 255 255
0.65552223 0.086983159 0.92749053 255 255 255
0.65563166 0.086960211 0.92611831 255 255 255
0.65574121 0.086937264 0.9247461 255 255 255
0.65585077 0.086914316 0.92337388 255 255 255
0.65596032 0.086891353 0.92200166 255 255 255
0.65405345 0.086690158 0.92075008 255 255 255
0.65416276 0.086667269 0.91938156 255 255 255
0.65427196 0.086644381 0.9180131 255 255 255
0.67859423 0.088456884 0.90242642 255 255 255
0.67668664 0.088255838 0.90118414 255 255 255
0.67578876 0.088143587 0.89986295 255 255 255
0.67590094 0.088120073 0.89845711 255 255 255
0.67399192 0.08791931 0.89723164 255 255 255
0.67410386 0.087895855 0.89582962 255 255 255
0.66410685 0.086986706 0.89536631 255 255 255
0.656129 0.086255282 0.89474881 255 255 255
0.65623832 0.086232379 0.89338034 255 255 255
0.63957953 0.085660398 0.9889006 255 255 255
0.63968754 0.085637793 0.98754889 255 255 255
0.63979542 0.085615188 0.98619723 255 255 255
0.63990331 0.085592568 0.98484552 255 255 255
0.63800848 0.085392565 0.98344284 255 255 255
0.63811612 0.085370019 0.98209482 255 255 255
0.63822365 0.085347474 0.98074687 255 255 255
0.63833129 0.085324928 0.97939891 255 255 255
0.63843882 0.085302383 0.97805089 255 255 255
0.63854647 0.085279837 0.97670293 255 255 255
0.64065862 0.085434318 0.97538352 255 255 255
0.6407665 0.085411713 0.97403181 255 255 255
0.64087439 0.085389107 0.97268015 255 255 255
0.64298773 0.085543305 0.97134578 255 255 255
0.64409876 0.085609019 0.96999723 255 255 255
0.64420712 0.085586309 0.96863991 255 255 255
0.64431548 0.085563615 0.96728259 255 255 255
0.64643037 0.085717499 0.96592778 255 255 255
0.64653897 0.08569473 0.96456677 255 255 255
0.64765131 0.085760176 0.96320325 255 255 255
0.64976752 0.085913762 0.96183163 255 255 255
0.64485717 0.085450098 0.96049613 255 255 255
0.64496553 0.085427403 0.95913881 255 255 255
0.64507389 0.085404694 0.95778149 255 255 255
0.65020382 0.085822344 0.95636517 255 255 255
0.6503129 0.085799485 0.95499855 255 255 255
0.65042198 0.085776627 0.95363194 255 255 255
0.65053117 0.085753769 0.95226526 255 255 255
0.65164518 0.085818842 0.9508794 255 255 255
0.6517545 0.085795954 0.94951093 255 255 255
0.65186369 0.085773066 0.94814241 255 255 255
0.65197289 0.085750178 0.94677395 255 255 255
0.6520822 0.085727289 0.94540542 255 255 255
0.6542027 0.085879967 0.9439798 255 255 255
0.65431225 0.085857019 0.94260758 255 255 255
0.65442181 0.085834071 0.94123536 255 255 255
0.65453136 0.085811123 0.93986315 255 255 255
0.6566534 0.085963503 0.93841881 255 255 255
0.65475035 0.085765213 0.93711871 255 255 255
0.6548599 0.085742265 0.93574649 255 255 255
0.65496945 0.085719317 0.93437427 255 255 255
0.65709281 0.085871443 0.93291503 255 255 255
0.6572026 0.085848421 0.93153912 255 255 255
0.65831959 0.085912898 0.93011594 255 255 255
0.6574223 0.085802406 0.92878723 255 255 255
0.6575321 0.085779384 0.92741126 255 255 255
0.65764189 0.085756376 0.92603528 255 255 255
0.67645681 0.086888716 0.90402263 255 255 255
0.6765691 0.086865172 0.90261501 255 255 255
0.67668152 0.086841628 0.90120739 255 255 255
0.67578363 0.08673127 0.89988613 255 255 255
0.67589581 0.086707756 0.89848036 255 255 255
0.67398679 0.086510718 0.89725482 255 255 255
0.67409873 0.086487263 0.89585274 255 255 255
0.66410184 0.085596859 0.89538914 255 255 255
0.65814602 0.085053727 0.89458001 255 255 255
0.65623331 0.084857509 0.89340293 255 255 255
0.64146793 0.084498942 0.99034429 255 255 255
0.63957465 0.084302381 0.98892295 255 255 255
0.63968253 0.084279776 0.98757124 255 255 255
0.63979042 0.084257171 0.98621953 255 255 255
0.6398983 0.084234551 0.98486781 255 255 255
0.63800359 0.084038317 0.98346508 255 255 255
0.63811111 0.084015772 0.98211712 255 255 255
0.63821876 0.083993226 0.98076916 255 255 255
0.63832641 0.083970681 0.97942114 255 255 255
0.64043784 0.08412151 0.9781093 255 255 255
0.64054573 0.084098905 0.97675759 255 255 255
0.64065361 0.0840763 0.97540587 255 255 255
0.64076161 0.084053695 0.97405416 255 255 255
0.6408695 0.08403109 0.97270244 255 255 255
0.64298272 0.084181547 0.97136819 255 255 255
0.64409375 0.084245384 0.97001964 255 255 255
0.64420211 0.084222689 0.96866232 255 255 255
0.64631677 0.084372878 0.96731132 255 255 255
0.64642537 0.084350109 0.96595025 255 255 255
0.64653409 0.08432734 0.96458924 255 255 255
0.64764631 0.084390923 0.96322578 255 255 255
0.64474392 0.084109172 0.9618758 255 255 255
0.64485228 0.084086478 0.96051854 255 255 255
0.64496052 0.084063768 0.95916122 255 255 255
0.64506888 0.084041074 0.95780391 255 255 255
0.65019882 0.084449351 0.95638776 255 255 255
0.65131247 0.084512666 0.95500749 255 255 255
0.65142179 0.084489778 0.95363897 255 255 255
0.65153098 0.08446689 0.95227051 255 255 255
0.65164018 0.084443986 0.95090199 255 255 255
0.65174949 0.084421098 0.94953352 255 255 255
0.65397859 0.084547266 0.94674689 255 255 255
0.65408814 0.084524319 0.94537467 255 255 255
0.65419769 0.084501371 0.94400245 255 255 255
0.6563189 0.084650189 0.94256938 255 255 255
0.65642869 0.084627166 0.94119346 255 255 255
0.65754473 0.084689975 0.93978333 255 255 255
0.65765464 0.084666938 0.93840551 255 255 255
0.65474534 0.084386617 0.93714136 255 255 255
0.65485489 0.084363654 0.93576914 255 255 255
0.65697789 0.0845121 0.93431371 255 255 255
0.65708768 0.084489092 0.93293774 255 255 255
0.65820456 0.084551707 0.93151647 255 255 255
0.65831459 0.08452867 0.93013865 255 255 255
0.6584245 0.084505618 0.92876089 255 255 255
0.67645168 0.085474521 0.90404588 255 255 255
0.67656398 0.085450977 0.90263826 255 255 255
0.67667639 0.085427433 0.90123063 255 255 255
0.67678869 0.085403889 0.89982295 255 255 255
0.67589068 0.085295424 0.89850354 255 255 255
0.67398167 0.085102156 0.89727795 255 255 255
0.66903996 0.084654421 0.89633566 255 255 255
0.66308594 0.084122196 0.89550579 255 255 255
0.66016316 0.083844706 0.89441133 255 255 255
0.64146304 0.083137192 0.9903667 255 255 255
0.64157116 0.08311452 0.98901123 255 255 255
0.63967764 0.082921773 0.98759353 255 255 255
0.63978553 0.082899168 0.98624182 255 255 255
0.63989341 0.082876548 0.9848901 255 255 255
0.6400013 0.082853943 0.98353845 255 255 255
0.63810623 0.082661517 0.98213935 255 255 255
0.63821387 0.082638972 0.98079139 255 255 255
0.6383214 0.082616426 0.97944343 255 255 255
0.64043295 0.082763508 0.97813159 255 255 255
0.64054084 0.082740903 0.97677988 255 255 255
0.64064872 0.082718298 0.97542816 255 255 255
0.64075661 0.082695693 0.97407645 255 255 255
0.64086449 0.082673088 0.9727248 255 255 255
0.6439805 0.082904458 0.97139937 255 255 255
0.64408886 0.082881764 0.97004205 255 255 255
0.64620316 0.083028264 0.96869481 255 255 255
0.64731491 0.083090074 0.96733695 255 255 255
0.64742374 0.083067276 0.96597403 255 255 255
0.64753258 0.083044484 0.96461117 255 255 255
0.6476413 0.083021685 0.96324825 255 255 255
0.64473891 0.082745552 0.96189821 255 255 255
0.64484727 0.082722843 0.96054095 255 255 255
0.65764964 0.083282702 0.93842828 255 255 255
0.65775967 0.083259657 0.93705046 255 255 255
0.65808952 0.083190523 0.93291706 255 255 255
0.65819955 0.083167478 0.93153924 255 255 255
0.65830958 0.083144434 0.93016142 255 255 255
0.66043413 0.083288789 0.92868555 255 255 255
0.6784662 0.084226653 0.90390772 255 255 255
0.67857885 0.08420305 0.90249634 255 255 255
0.67667127 0.084013239 0.90125388 255 255 255
0.67678356 0.083989695 0.8998462 255 255 255
0.67588556 0.083883107 0.89852679 255 255 255
0.67397654 0.083693564 0.89730108 255 255 255
0.66802418 0.083172232 0.89645058 255 255 255
0.66308093 0.082734212 0.89552861 255 255 255
0.66015816 0.082462355 0.89443403 255 255 255
0.64145803 0.081775442 0.99038905 255 255 255
0.64156628 0.08175277 0.98903364 255 255 255
0.64167452 0.081730098 0.98767817 255 255 255
0.64178264 0.081707433 0.98632276 255 255 255
0.63988853 0.081518546 0.98491246 255 255 255
0.63799369 0.081329793 0.9835096 255 255 255
0.63810134 0.081307247 0.98216164 255 255 255
0.63820887 0.081284702 0.98081362 255 255 255
0.63831651 0.081262156 0.97946566 255 255 255
0.64042795 0.081405506 0.97815394 255 255 255
0.64053595 0.0813829 0.97680223 255 255 255
0.64064384 0.081360288 0.97545052 255 255 255
0.64075172 0.081337675 0.9740988 255 255 255
0.6428647 0.081480727 0.97276843 255 255 255
0.6439755 0.081540838 0.97142178 255 255 255
0.64408386 0.081518136 0.97006446 255 255 255
0.64619815 0.081660897 0.96871728 255 255 255
0.64731002 0.081720829 0.96735942 255 255 255
0.64741874 0.081698038 0.96599656 255 255 255
0.64752758 0.081675246 0.96463364 255 255 255
0.64763629 0.081652448 0.96327078 255 255 255
0.6497525 0.081794798 0.96189934 255 255 255
0.64484227 0.081359223 0.96056336 255 255 255
0.65775454 0.081875429 0.93707323 255 255 255
0.65484488 0.081606433 0.93581444 255 255 255
0.6579746 0.081829339 0.93431759 255 255 255
0.65808451 0.081806295 0.93293977 255 255 255
0.65819454 0.08178325 0.93156201 255 255 255
0.65830445 0.081760205 0.93018419 255 255 255
0.66042912 0.081900805 0.92870837 255 255 255
0.67644143 0.082646132 0.90409237 255 255 255
0.67655373 0.082622588 0.90268475 255 255 255
0.67666614 0.082599044 0.90127712 255 255 255
0.67677844 0.0825755 0.89986944 255 255 255
0.67588043 0.082470775 0.89854997 255 255 255
0.67397141 0.082284987 0.89732426 255 255 255
0.66801906 0.08177489 0.89647353 255 255 255
0.6630758 0.081346236 0.89555144 255 255 255
0.66116416 0.081161037 0.89436114 255 255 255
0.64145315 0.080413684 0.99041146 255 255 255
0.64156139 0.08039102 0.98905599 255 255 255
0.64166951 0.08036834 0.98770058 255 255 255
0.64177775 0.080345675 0.98634517 255 255 255
0.63788116 0.079998076 0.98487985 255 255 255
0.63798881 0.079975531 0.98353189 255 255 255
0.63809633 0.079952985 0.98218387 255 255 255
0.63820398 0.07993044 0.98083591 255 255 255
0.63831162 0.079907894 0.97948796 255 255 255
0.64042306 0.080047503 0.97817624 255 255 255
0.64053094 0.080024898 0.97682452 255 255 255
0.64063883 0.080002293 0.97547281 255 255 255
0.64074671 0.07997968 0.97412109 255 255 255
0.6428597 0.080118969 0.97279078 255 255 255
0.64397061 0.08017721 0.97144419 255 255 255
0.64608455 0.08031629 0.97010076 255 255 255
0.64619327 0.080293529 0.96873975 255 255 255
0.64730501 0.080351591 0.96738195 255 255 255
0.64741373 0.080328792 0.96601903 255 255 255
0.64752257 0.080305994 0.96465617 255 255 255
0.64763141 0.080283202 0.96329325 255 255 255
0.64774013 0.080260411 0.96193039 255 255 255
0.64483738 0.079995602 0.96058577 255 255 255
0.6580795 0.080422074 0.93296254 255 255 255
0.67643619 0.081231922 0.90411562 255 255 255
0.6765486 0.081208378 0.90270799 255 255 255
0.67666101 0.081184834 0.90130037 255 255 255
0.67677331 0.08116129 0.89989269 255 255 255
0.67587531 0.081058443 0.89857322 255 255 255
0.67396629 0.08087641 0.89734739 255 255 255
0.67407823 0.080852956 0.89594537 255 255 255
0.6630708 0.07995826 0.89557421 255 255 255
0.66115904 0.079776816 0.89438391 255 255 255
0.64244878 0.079131417 0.9904688 255 255 255
0.64255714 0.079108715 0.98911148 255 255 255
0.64166462 0.07900659 0.98772293 255 255 255
0.63776863 0.078666374 0.9862501 255 255 255
0.63787627 0.078643829 0.98490208 255 255 255
0.63798392 0.078621276 0.98355412 255 255 255
0.63809144 0.07859873 0.98220617 255 255 255
0.63819909 0.078576185 0.98085815 255 255 255
0.63830674 0.078553639 0.97951019 255 255 255
0.63841426 0.078531094 0.97816223 255 255 255
0.64052606 0.078666888 0.97684687 255 255 255
0.64063394 0.078644276 0.97549516 255 255 255
0.64074183 0.078621671 0.97414345 255 255 255
0.64285481 0.078757212 0.97281313 255 255 255
0.6439656 0.07881359 0.9714666 255 255 255
0.64607966 0.078948922 0.97012323 255 255 255
0.64719129 0.079005137 0.96876734 255 255 255
0.6473 0.078982338 0.96740448 255 255 255
0.64740884 0.078959547 0.96604156 255 255 255
0.64751756 0.078936756 0.96467865 255 255 255
0.6476264 0.078913957 0.96331578 255 255 255
0.64773524 0.078891158 0.96195287 255 255 255
0.67643106 0.07981772 0.90413886 255 255 255
0.67856336 0.079949223 0.90256625 255 255 255
0.67665589 0.079770632 0.90132362 255 255 255
0.67676818 0.079747088 0.89991593 255 255 255
0.67890143 0.079878405 0.89833212 255 255 255
0.66317606 0.07854718 0.89421552 255 255 255
0.64733756 0.078178689 0.99203277 255 255 255
0.64544559 0.07800062 0.99059618 255 255 255
0.64255214 0.077745095 0.98913389 255 255 255
0.64165962 0.07764484 0.98774534 255 255 255
0.63776374 0.077312112 0.98627234 255 255 255
0.63787138 0.077289566 0.98492438 255 255 255
0.63797891 0.077267013 0.98357636 255 255 255
0.63808656 0.077244468 0.9822284 255 255 255
0.6381942 0.077221923 0.98088044 255 255 255
0.63830173 0.077199377 0.97953242 255 255 255
0.63840938 0.077176832 0.97818446 255 255 255
0.64052105 0.077308893 0.97686917 255 255 255
0.64062905 0.077286281 0.97551745 255 255 255
0.64073694 0.077263668 0.97416574 255 255 255
0.64084482 0.077241063 0.97281402 255 255 255
0.64295805 0.077372789 0.97148013 255 255 255
0.64707744 0.077658698 0.97015274 255 255 255
0.64718628 0.077635899 0.96878988 255 255 255
0.64930117 0.077767253 0.96743357 255 255 255
0.64941025 0.077744395 0.9660669 255 255 255
0.64951944 0.077721536 0.96470028 255 255 255
0.64962852 0.077698678 0.96333367 255 255 255
0.6497376 0.077675819 0.96196705 255 255 255
0.67855823 0.07853128 0.90258956 255 255 255
0.67867088 0.078507669 0.90117818 255 255 255
0.66317105 0.077159204 0.89423835 255 255 255
0.64533174 0.076654166 0.99198157 255 255 255
0.64444005 0.07655564 0.99058366 255 255 255
0.64254725 0.07638146 0.98915631 255 255 255
0.64265561 0.076358765 0.98779899 255 255 255
0.63976085 0.076109141 0.98635346 255 255 255
0.63786638 0.075935304 0.98494661 255 255 255
0.63797402 0.075912759 0.98359865 255 255 255
0.63808167 0.075890213 0.98225063 255 255 255
0.6381892 0.075867668 0.98090267 255 255 255
0.63829684 0.075845122 0.97955471 255 255 255
0.63840449 0.075822577 0.97820669 255 255 255
0.63851202 0.075800031 0.97685874 255 255 255
0.63861966 0.075777486 0.97551078 255 255 255
0.64073193 0.075905666 0.97418809 255 255 255
0.64083982 0.075883061 0.97283638 255 255 255
0.64295304 0.076011047 0.97150248 255 255 255
0.64707243 0.076289445 0.97017527 255 255 255
0.64718127 0.076266646 0.96881235 255 255 255
0.64929616 0.076394267 0.9674561 255 255 255
0.65040863 0.076446578 0.96609092 255 255 255
0.65051782 0.07642369 0.96472245 255 255 255
0.65062714 0.076400802 0.96335399 255 255 255
0.64973259 0.076302841 0.96198964 255 255 255
0.64532685 0.075284928 0.99200404 255 255 255
0.64443505 0.075188264 0.99060613 255 255 255
0.64454365 0.07516551 0.98924512 255 255 255
0.6426506 0.07499513 0.9878214 255 255 255
0.63975596 0.074751131 0.98637575 255 255 255
0.63786149 0.074581042 0.9849689 255 255 255
0.63796914 0.074558496 0.98362088 255 255 255
0.63807666 0.074535951 0.98227292 255 255 255
0.63818431 0.074513406 0.98092496 255 255 255
0.63829195 0.07449086 0.97957695 255 255 255
0.63839948 0.074468315 0.97822899 255 255 255
0.63850713 0.074445769 0.97688103 255 255 255
0.63861477 0.074423224 0.97553301 255 255 255
0.6387223 0.074400678 0.97418505 255 255 255
0.64083493 0.074525043 0.97285867 255 255 255
0.64294815 0.074649289 0.97152483 255 255 255
0.64706755 0.074920207 0.97019774 255 255 255
0.6491822 0.075044125 0.96884531 255 255 255
0.65029442 0.07509461 0.96748203 255 255 255
0.65040362 0.075071722 0.96611357 255 255 255
0.65051281 0.075048834 0.96474504 255 255 255
0.65262914 0.075172424 0.96337211 255 255 255
0.65474606 0.07529588 0.96199167 255 255 255
0.64732265 0.074059725 0.99210048 255 255 255
0.64443004 0.073820896 0.9906286 255 255 255
0.64253736 0.073654212 0.98920113 255 255 255
0.64164484 0.073559582 0.98781246 255 255 255
0.63975096 0.073393121 0.9863981 255 255 255
0.6378566 0.073226787 0.98499113 255 255 255
0.63796425 0.073204234 0.98364317 255 255 255
0.63807178 0.073181689 0.98229516 255 255 255
0.63817942 0.073159143 0.9809472 255 255 255
0.63728523 0.073064856 0.97957903 255 255 255
0.63739276 0.073042348 0.97823292 255 255 255
0.63850224 0.073091507 0.97690326 255 255 255
0.63860977 0.073068962 0.9755553 255 255 255
0.63871741 0.073046416 0.97420728 255 255 255
0.64083004 0.073167041 0.97288102 255 255 255
0.64294314 0.073287539 0.97154725 255 255 255
0.64706254 0.073550954 0.97022027 255 255 255
0.64917719 0.07367114 0.96886784 255 255 255
0.65028942 0.07371974 0.96750462 255 255 255
0.65039861 0.073696852 0.96613616 255 255 255
0.65050793 0.073673964 0.96476763 255 255 255
0.65262413 0.073793814 0.96339476 255 255 255
0.65273368 0.073770866 0.96202254 255 255 255
0.64731765 0.072686732 0.99212301 255 255 255
0.64442515 0.072453529 0.99065107 255 255 255
0.64253235 0.072290584 0.98922354 255 255 255
0.64163983 0.07219784 0.98783487 255 255 255
0.63974607 0.072035119 0.98642039 255 255 255
0.63785172 0.071872532 0.98501337 255 255 255
0.63795924 0.071849979 0.98366541 255 255 255
0.63806689 0.071827434 0.98231745 255 255 255
0.63817453 0.071804889 0.98096943 255 255 255
0.63728034 0.071712472 0.97960126 255 255 255
0.63738775 0.071689963 0.97825515 255 255 255
0.63849735 0.071737252 0.97692549 255 255 255
0.63860488 0.071714707 0.97557753 255 255 255
0.63871253 0.071692161 0.97422957 255 255 255
0.64082503 0.071809039 0.97290331 255 255 255
0.64293826 0.071925789 0.97156966 255 255 255
0.64705753 0.072181717 0.97024274 255 255 255
0.64917219 0.072298147 0.96889043 255 255 255
0.65028441 0.072344877 0.96752721 255 255 255
0.65039361 0.072321989 0.96615875 255 255 255
0.65050292 0.0722991 0.96479023 255 255 255
0.65261912 0.072415203 0.96341741 255 255 255
0.65272868 0.07239224 0.96204519 255 255 255
0.64531195 0.071177192 0.99207157 255 255 255
0.6424191 0.070949659 0.99060327 255 255 255
0.64252746 0.070926964 0.98924595 255 255 255
0.64163494 0.070836082 0.98785722 255 255 255
0.63974118 0.070677117 0.98644274 255 255 255
0.63684559 0.070450142 0.985008 255 255 255
0.63695312 0.070427626 0.98366183 255 255 255
0.63706052 0.070405111 0.98231572 255 255 255
0.63716793 0.070382595 0.98096961 255 255 255
0.63727546 0.070360079 0.9796235 255 255 255
0.63738286 0.070337571 0.97827739 255 255 255
0.63849235 0.07038299 0.97694778 255 255 255
0.63859999 0.070360444 0.97559977 255 255 255
0.64071226 0.070473641 0.97427738 255 255 255
0.64082015 0.070451029 0.97292566 255 255 255
0.64293325 0.070564032 0.97159201 255 255 255
0.64705265 0.070812464 0.97026527 255 255 255
0.65017021 0.070992902 0.96891832 255 255 255
0.6502794 0.070970014 0.9675498 255 255 255
0.6503886 0.070947126 0.96618134 255 255 255
0.65250456 0.07105954 0.96481228 255 255 255
0.65261412 0.071036592 0.96344006 255 255 255
0.64530694 0.069807947 0.9920941 255 255 255
0.64241409 0.069586039 0.99062568 255 255 255
0.64252245 0.069563344 0.98926836 255 255 255
0.64162993 0.069474332 0.98787963 255 255 255
0.63973618 0.069319114 0.98646504 255 255 255
0.6368407 0.069097757 0.98503017 255 255 255
0.63694811 0.069075249 0.98368406 255 255 255
0.63705564 0.069052733 0.98233795 255 255 255
0.63716304 0.069030218 0.98099184 255 255 255
0.63727057 0.069007702 0.97964573 255 255 255
0.63737798 0.068985194 0.97829962 255 255 255
0.63848746 0.069028735 0.97697002 255 255 255
0.6385951 0.06900619 0.97562206 255 255 255
0.64070725 0.069115639 0.97429967 255 255 255
0.64081526 0.069093026 0.97294796 255 255 255
0.64393103 0.069268212 0.97162348 255 255 255
0.64704764 0.069443226 0.9702878 255 255 255
0.6521709 0.069749787 0.96895158 255 255 255
0.65428662 0.069858506 0.96758634 255 255 255
0.65239 0.069703877 0.96620715 255 255 255
0.65249956 0.069680929 0.96483493 255 255 255
0.65461612 0.069789469 0.96345848 255 255 255
0.64430153 0.068374172 0.99207956 255 255 255
0.64240921 0.068222418 0.99064809 255 255 255
0.64251745 0.068199709 0.98929077 255 255 255
0.64162505 0.068112582 0.98790199 255 255 255
0.63973129 0.067961097 0.98648739 255 255 255
0.63683581 0.067745373 0.98505241 255 255 255
0.63694322 0.067722857 0.9837063 255 255 255
0.63705075 0.067700341 0.98236018 255 255 255
0.63715816 0.067677826 0.98101407 255 255 255
0.63726556 0.06765531 0.97966796 255 255 255
0.63737309 0.067632802 0.97832185 255 255 255
0.63848257 0.067674473 0.97699231 255 255 255
0.64059448 0.067780234 0.97567368 255 255 255
0.64070237 0.067757621 0.97432202 255 255 255
0.64281523 0.067863204 0.97299218 255 255 255
0.64392602 0.067904592 0.97164589 255 255 255
0.64603984 0.06800995 0.97030306 255 255 255
0.65216589 0.068371177 0.96897423 255 255 255
0.65428162 0.068476155 0.96760905 255 255 255
0.652385 0.068325266 0.9662298 255 255 255
0.65249455 0.068302318 0.96485758 255 255 255
0.64429665 0.067006811 0.99210203 255 255 255
0.6424042 0.066858791 0.9906705 255 255 255
0.64251256 0.066836089 0.98931319 255 255 255
0.64162004 0.066750824 0.9879244 255 255 255
0.6397264 0.066603094 0.98650968 255 255 255
0.63983428 0.066580489 0.98515797 255 255 255
0.63793957 0.066432938 0.98375446 255 255 255
0.63804722 0.066410393 0.9824065 255 255 255
0.63715327 0.066325441 0.98103631 255 255 255
0.63726068 0.066302925 0.97969019 255 255 255
0.6373682 0.066280417 0.97834408 255 255 255
0.63847768 0.066320211 0.97701454 255 255 255
0.64058959 0.066422231 0.97569603 255 255 255
0.6427021 0.066524118 0.97437 255 255 255
0.64281023 0.066501454 0.97301459 255 255 255
0.64392102 0.066540964 0.9716683 255 255 255
0.64603496 0.066642582 0.97032553 255 255 255
0.65216088 0.066992566 0.96899688 255 255 255
0.65227044 0.066969618 0.96762466 255 255 255
0.65237999 0.066946656 0.96625245 255 255 255
0.65248954 0.066923708 0.96488023 255 255 255
0.64429164 0.065639436 0.9921245 255 255 255
0.64239931 0.065495163 0.99069291 255 255 255
0.64250755 0.065472461 0.9893356 255 255 255
0.64161515 0.065389074 0.98794675 255 255 255
0.63972139 0.065245092 0.98653197 255 255 255
0.63982928 0.065222487 0.98518032 255 255 255
0.63793468 0.065078683 0.98377669 255 255 255
0.63804233 0.065056138 0.98242873 255 255 255
0.63814986 0.065033592 0.98108077 255 255 255
0.6382575 0.065011047 0.97973275 255 255 255
0.63836515 0.064988501 0.97838479 255 255 255
0.63847268 0.064965956 0.97703683 255 255 255
0.64058459 0.065064222 0.97571832 255 255 255
0.6426971 0.065162368 0.97439241 255 255 255
0.64280534 0.065139696 0.973037 255 255 255
0.64592135 0.065297969 0.97170901 255 255 255
0.6490382 0.065456055 0.97036988 255 255 255
0.65215588 0.065613955 0.96901953 255 255 255
0.65226543 0.065591007 0.96764731 255 255 255
0.65237498 0.065568045 0.9662751 255 255 255
0.64228594 0.064154238 0.99207264 255 255 255
0.6423943 0.064131543 0.99071532 255 255 255
0.64150202 0.064049989 0.98932457 255 255 255
0.64161015 0.064027324 0.98796916 255 255 255
0.63971651 0.063887082 0.98655432 255 255 255
0.63982439 0.06386447 0.98520261 255 255 255
0.6379298 0.063724421 0.98379898 255 255 255
0.63803732 0.063701876 0.98245096 255 255 255
0.63814497 0.06367933 0.981103 255 255 255
0.63825262 0.063656785 0.97975504 255 255 255
0.63836014 0.063634239 0.97840703 255 255 255
0.64047182 0.063728824 0.97709239 255 255 255
0.6405797 0.063706219 0.97574067 255 255 255
0.64269221 0.063800618 0.97441477 255 255 255
0.64280033 0.063777946 0.97305936 255 255 255
0.64591634 0.063930601 0.97173148 255 255 255
0.64903319 0.06408307 0.97039247 255 255 255
0.65014517 0.064118579 0.96903127 255 255 255
0.65226042 0.064212397 0.96767002 255 255 255
0.65236998 0.064189434 0.96629781 255 255 255
0.65247953 0.064166486 0.96492559 255 255 255
0.64228106 0.062790617 0.99209505 255 255 255
0.64138889 0.062710911 0.99070239 255 255 255
0.64149702 0.062688239 0.98934698 255 255 255
0.64160526 0.062665567 0.98799151 255 255 255
0.6397115 0.062529087 0.98657662 255 255 255
0.63681614 0.062335826 0.98514134 255 255 255
0.63692355 0.062313315 0.98379523 255 255 255
0.63703108 0.062290799 0.98244911 255 255 255
0.63713849 0.062268283 0.981103 255 255 255
0.63724601 0.062245768 0.97975689 255 255 255
0.63835526 0.062279981 0.97842932 255 255 255
0.6384629 0.062257435 0.9770813 255 255 255
0.64057481 0.062348217 0.97576296 255 255 255
0.6426872 0.062438861 0.97443718 255 255 255
0.64379787 0.062472787 0.97309279 255 255 255
0.64591134 0.062563226 0.97175395 255 255 255
0.64902818 0.062710077 0.970415 255 255 255
0.65014017 0.062743723 0.96905386 255 255 255
0.65225542 0.062833786 0.96769267 255 255 255
0.65236497 0.062810838 0.96632046 255 255 255
0.65247452 0.062787876 0.96494824 255 255 255
0.65057719 0.062652171 0.96357995 255 255 255
0.64227605 0.061426993 0.99211746 255 255 255
0.64138389 0.061349157 0.9907248 255 255 255
0.64149213 0.061326489 0.98936933 255 255 255
0.63959873 0.061193686 0.98795068 255 255 255
0.63970661 0.061171077 0.98659897 255 255 255
0.63681126 0.060983438 0.98516357 255 255 255
0.63691866 0.060960926 0.98381746 255 255 255
0.63702619 0.06093841 0.98247135 255 255 255
0.6371336 0.060915895 0.98112524 255 255 255
0.63724101 0.060893379 0.97977912 255 255 255
0.63835037 0.060925718 0.97845155 255 255 255
0.63845789 0.060903173 0.97710359 255 255 255
0.64056981 0.060990211 0.97578532 255 255 255
0.64268231 0.06107711 0.97445953 255 255 255
0.64379287 0.061109167 0.97311521 255 255 255
0.64590645 0.061195858 0.97177643 255 255 255
0.64902318 0.061337087 0.97043759 255 255 255
0.65013528 0.061368857 0.96907651 255 255 255
0.65225041 0.061455172 0.96771532 255 255 255
0.65235996 0.061432216 0.9663431 255 255 255
0.65246952 0.061409269 0.96497089 255 255 255
0.65057218 0.061277304 0.96360254 255 255 255
0.65068138 0.061254416 0.96223402 255 255 255
0.64227104 0.060063366 0.99213988 255 255 255
0.641379 0.059987403 0.99074715 255 255 255
0.64148712 0.059964735 0.98939174 255 255 255
0.63959384 0.059835676 0.98797297 255 255 255
0.63970172 0.059813067 0.98662126 255 255 255
0.63680637 0.059631053 0.9851858 255 255 255
0.63691378 0.059608541 0.98383969 255 255 255
0.63802266 0.0596391 0.98251778 255 255 255
0.63813019 0.059616555 0.98116976 255 255 255
0.64024115 0.059700023 0.97986275 255 255 255
0.64034903 0.059677418 0.97851104 255 255 255
0.64045703 0.05965481 0.97715932 255 255 255
0.64056492 0.059632201 0.97580761 255 255 255
0.64267731 0.059715357 0.97448194 255 255 255
0.64278555 0.059692688 0.97312653 255 255 255
0.64389634 0.059722837 0.97178036 255 255 255
0.64901817 0.059964091 0.97046018 255 255 255
0.64912724 0.059941232 0.9690935 255 255 255
0.65023947 0.059971105 0.96773058 255 255 255
0.65034866 0.059948217 0.96636212 255 255 255
0.65045798 0.059925329 0.9649936 255 255 255
0.65056717 0.059902441 0.96362513 255 255 255
0.65067637 0.059879553 0.96225667 255 255 255
0.64137399 0.058625657 0.99076957 255 255 255
0.64148223 0.058602989 0.9894141 255 255 255
0.64159036 0.058580317 0.98805869 255 255 255
0.63969672 0.058455061 0.98664361 255 255 255
0.6398046 0.058432452 0.9852919 255 255 255
0.63991261 0.058409844 0.98394018 255 255 255
0.64002049 0.058387235 0.98258847 255 255 255
0.64012837 0.058364626 0.98123676 255 255 255
0.64023626 0.058342017 0.97988504 255 255 255
0.64034414 0.058319412 0.97853333 255 255 255
0.64045203 0.058296803 0.97718167 255 255 255
0.64055991 0.058274195 0.97582996 255 255 255
0.64267242 0.05835361 0.97450429 255 255 255
0.64278054 0.058330942 0.97314888 255 255 255
0.64389133 0.058359213 0.97180277 255 255 255
0.64700782 0.058489271 0.97046781 255 255 255
0.64711666 0.058466472 0.96910495 255 255 255
0.64923143 0.058545385 0.96774948 255 255 255
0.65034366 0.058573354 0.96638471 255 255 255
0.65045297 0.058550466 0.96501625 255 255 255
0.65056217 0.058527578 0.96364772 255 255 255
0.65067148 0.058504689 0.96227926 255 255 255
0.6413691 0.057263903 0.99079192 255 255 255
0.64147723 0.057241235 0.98943651 255 255 255
0.64158547 0.057218563 0.98808104 255 255 255
0.63969183 0.057097055 0.9866659 255 255 255
0.63979971 0.057074446 0.98531419 255 255 255
0.6399076 0.057051837 0.98396254 255 255 255
0.64001548 0.057029229 0.98261082 255 255 255
0.64012337 0.05700662 0.98125911 255 255 255
0.64023137 0.056984011 0.97990739 255 255 255
0.64033926 0.056961406 0.97855568 255 255 255
0.64044714 0.056938797 0.97720397 255 255 255
0.64055502 0.056916188 0.97585225 255 255 255
0.64266741 0.056991857 0.9745267 255 255 255
0.64377809 0.057018287 0.9731825 255 255 255
0.64589155 0.05709374 0.97184384 255 255 255
0.64700294 0.057120021 0.97049034 255 255 255
0.64711165 0.057097223 0.96912742 255 255 255
0.64922643 0.057172395 0.96777201 255 255 255
0.65033877 0.057198491 0.9664073 255 255 255
0.65044796 0.057175603 0.96503884 255 255 255
0.65055716 0.057152715 0.96367031 255 255 255
0.65066648 0.057129826 0.96230185 255 255 255
0.6413641 0.05590215 0.99081433 255 255 255
0.64147234 0.055879481 0.98945886 255 255 255
0.63957894 0.055761661 0.98803997 255 255 255
0.63768506 0.055643957 0.98662847 255 255 255
0.63779271 0.055621412 0.98528051 255 255 255
0.63790023 0.055598862 0.9839325 255 255 255
0.63800788 0.055576317 0.98258454 255 255 255
0.63811553 0.055553772 0.98123658 255 255 255
0.63822305 0.055531226 0.97988856 255 255 255
0.64033425 0.055603404 0.97857797 255 255 255
0.64044225 0.055580795 0.97722626 255 255 255
0.64055014 0.055558186 0.9758746 255 255 255
0.64266253 0.055630103 0.97454906 255 255 255
0.64377308 0.055654664 0.97320491 255 255 255
0.64388144 0.055631962 0.97184759 255 255 255
0.64599526 0.055703606 0.9705053 255 255 255
0.64610386 0.055680841 0.96914428 255 255 255
0.64922142 0.055799406 0.9677946 255 255 255
0.65033376 0.055823628 0.96642989 255 255 255
0.65044296 0.05580074 0.96506143 255 255 255
0.65055215 0.055777851 0.9636929 255 255 255
0.65066147 0.055754963 0.96232444 255 255 255
0.66388035 0.055043329 0.89727509 255 255 255
0.66399074 0.055020191 0.89589167 255 255 255
0.66410124 0.054997053 0.8945083 255 255 255
0.64146733 0.054517731 0.98948127 255 255 255
0.63957405 0.054403655 0.98806226 255 255 255
0.63768017 0.054289699 0.98665071 255 255 255
0.6377877 0.054267153 0.98530275 255 255 255
0.63789535 0.054244604 0.98395479 255 255 255
0.63800299 0.054222059 0.98260677 255 255 255
0.63811052 0.054199513 0.98125881 255 255 255
0.63821816 0.054176968 0.97991085 255 255 255
0.64032936 0.054245397 0.97860032 255 255 255
0.64043725 0.054222789 0.97724861 255 255 255
0.64054513 0.05420018 0.97589689 255 255 255
0.64265752 0.054268353 0.97457147 255 255 255
0.64376819 0.054291036 0.97322732 255 255 255
0.64387655 0.054268334 0.97187001 255 255 255
0.64599025 0.054336235 0.97052777 255 255 255
0.64609885 0.05431347 0.96916676 255 255 255
0.64921641 0.054426413 0.96781719 255 255 255
0.65032876 0.054448761 0.96645248 255 255 255
0.65043795 0.054425873 0.96508402 255 255 255
0.65054727 0.054402985 0.96371555 255 255 255
0.65065646 0.054380096 0.96234703 255 255 255
0.66275454 0.053632941 0.89877075 255 255 255
0.6628648 0.053609833 0.89738923 255 255 255
0.66297507 0.053586725 0.89600766 255 255 255
0.66308534 0.053563617 0.89462614 255 255 255
0.64246309 0.053199839 0.9895373 255 255 255
0.64157069 0.053133305 0.98814821 255 255 255
0.63967705 0.05302304 0.9867329 255 255 255
0.63978493 0.053000432 0.98538119 255 255 255
0.63789046 0.052890345 0.98397702 255 255 255
0.63799798 0.0528678 0.98262906 255 255 255
0.64010859 0.052932605 0.98132604 255 255 255
0.64021659 0.052909996 0.97997433 255 255 255
0.64032447 0.052887391 0.97862262 255 255 255
0.64043236 0.052864783 0.9772709 255 255 255
0.64054024 0.052842174 0.97591925 255 255 255
0.64265263 0.052906599 0.97459382 255 255 255
0.64376318 0.052927416 0.97324973 255 255 255
0.64387155 0.052904714 0.97189242 255 255 255
0.64598525 0.052968863 0.97055024 255 255 255
0.64709675 0.052989494 0.96919495 255 255 255
0.64921141 0.053053424 0.96783972 255 255 255
0.65032375 0.053073898 0.96647507 255 255 255
0.65043294 0.05305101 0.96510661 255 255 255
0.65054226 0.053028122 0.96373814 255 255 255
0.65065145 0.053005233 0.96236962 255 255 255
0.65276814 0.053068761 0.96099019 255 255 255
0.66263914 0.052268077 0.90017509 255 255 255
0.66274941 0.052244969 0.89879358 255 255 255
0.66285968 0.052221861 0.89741206 255 255 255
0.66297007 0.052198753 0.89603049 255 255 255
0.66308033 0.052175645 0.89464897 255 255 255
0.64145744 0.051794223 0.98952603 255 255 255
0.64156568 0.051771551 0.98817056 255 255 255
0.63967204 0.05166503 0.98675519 255 255 255
0.63978004 0.051642425 0.98540348 255 255 255
0.63788557 0.051536083 0.98399931 255 255 255
0.6379931 0.051513538 0.98265129 255 255 255
0.63810074 0.051490992 0.98130333 255 255 255
0.63820827 0.051468447 0.97995538 255 255 255
0.64031947 0.051529385 0.97864497 255 255 255
0.64042735 0.051506773 0.97729325 255 255 255
0.64053535 0.051484168 0.97594154 255 255 255
0.64264762 0.051544845 0.97461623 255 255 255
0.64275587 0.05152218 0.97326076 255 255 255
0.64386666 0.051541086 0.97191483 255 255 255
0.64598036 0.051601492 0.97057271 255 255 255
0.64709175 0.051620249 0.96921742 255 255 255
0.64920652 0.051680431 0.96786231 255 255 255
0.6493156 0.051657572 0.96649569 255 255 255
0.65042794 0.051676147 0.9651292 255 255 255
0.65053725 0.051653259 0.96376073 255 255 255
0.65064645 0.05163037 0.96239221 255 255 255
0.65276313 0.051690146 0.96101284 255 255 255
0.66263413 0.050880101 0.90019792 255 255 255
0.6627444 0.050856993 0.89881635 255 255 255
0.66285467 0.050833885 0.89743483 255 255 255
0.6639756 0.050850645 0.89596021 255 255 255
0.6640861 0.050827503 0.89457679 255 255 255
0.64145255 0.050432473 0.98954839 255 255 255
0.64156079 0.050409801 0.98819298 255 255 255
0.63966715 0.050307024 0.98677754 255 255 255
0.63977504 0.050284415 0.98542583 255 255 255
0.63788056 0.050181825 0.98402154 255 255 255
0.63798821 0.050159279 0.98267359 255 255 255
0.63809586 0.05013673 0.98132557 255 255 255
0.63820338 0.050114185 0.97997761 255 255 255
0.63831103 0.050091639 0.97862965 255 255 255
0.64042246 0.050148766 0.97731555 255 255 255
0.64053035 0.050126158 0.97596383 255 255 255
0.64063823 0.050103553 0.97461218 255 255 255
0.64275098 0.050160423 0.97328317 255 255 255
0.64386165 0.050177462 0.97193724 255 255 255
0.64597535 0.050234124 0.97059518 255 255 255
0.64708686 0.050251007 0.96923995 255 255 255
0.64920151 0.050307445 0.9678849 255 255 255
0.64931059 0.050284587 0.96651822 255 255 255
0.65042305 0.050301284 0.96515179 255 255 255
0.65053225 0.050278392 0.96378332 255 255 255
0.65064144 0.050255504 0.9624148 255 255 255
0.65275812 0.050311536 0.96103549 255 255 255
0.66262913 0.049492121 0.90022075 255 255 255
0.6627394 0.049469016 0.89883918 255 255 255
0.66284966 0.049445909 0.89745766 255 255 255
0.66397059 0.049460799 0.8959831 255 255 255
0.66408098 0.049437657 0.89459968 255 255 255
0.64144754 0.049070716 0.9895708 255 255 255
0.64155579 0.049048044 0.98821533 255 255 255
0.63966227 0.048949018 0.98679984 255 255 255
0.63977015 0.048926413 0.98544812 255 255 255
0.63787568 0.048827566 0.98404384 255 255 255
0.63798332 0.048805021 0.98269582 255 255 255
0.63809085 0.048782475 0.98134786 255 255 255
0.63819849 0.04875993 0.9799999 255 255 255
0.63830614 0.048737384 0.97865188 255 255 255
0.64041758 0.04879076 0.9773379 255 255 255
0.64052546 0.048768155 0.97598618 255 255 255
0.64063334 0.048745546 0.97463447 255 255 255
0.64274597 0.048798669 0.97330558 255 255 255
0.64385664 0.048813839 0.97195965 255 255 255
0.64597034 0.048866749 0.97061765 255 255 255
0.64708185 0.048881762 0.96926248 255 255 255
0.64919651 0.048934452 0.96790743 255 255 255
0.64930558 0.048911594 0.96654081 255 255 255
0.65041804 0.048926421 0.96517438 255 255 255
0.65052724 0.048903532 0.96380591 255 255 255
0.65063643 0.048880644 0.96243739 255 255 255
0.65074575 0.048857756 0.96106893 255 255 255
0.662624 0.048104148 0.90024352 255 255 255
0.66273427 0.04808104 0.898862 255 255 255
0.66385508 0.048094086 0.89738929 255 255 255
0.66396558 0.048070945 0.89600593 255 255 255
0.6630652 0.04801172 0.8947174 255 255 255
0.63754797 0.047540944 0.98811001 255 255 255
0.6376555 0.047518395 0.98676205 255 255 255
0.63776314 0.047495849 0.98541403 255 255 255
0.63787079 0.047473304 0.98406607 255 255 255
0.63797832 0.047450759 0.98271811 255 255 255
0.63808596 0.047428213 0.98137009 255 255 255
0.63819361 0.047405668 0.98002213 255 255 255
0.63830113 0.047383122 0.97867417 255 255 255
0.64041257 0.047432754 0.97736019 255 255 255
0.64052045 0.047410145 0.97600847 255 255 255
0.64363503 0.047495618 0.97469664 255 255 255
0.6437434 0.047472917 0.97333938 255 255 255
0.64585674 0.047522143 0.97200119 255 255 255
0.64696813 0.047535315 0.97064787 255 255 255
0.64707685 0.047512516 0.96928495 255 255 255
0.6491915 0.047561459 0.96793002 255 255 255
0.64930058 0.047538601 0.9665634 255 255 255
0.65041304 0.047551557 0.96519697 255 255 255
0.65052223 0.047528669 0.9638285 255 255 255
0.65063155 0.047505781 0.96246004 255 255 255
0.65074074 0.047482893 0.96109152 255 255 255
0.66261899 0.046716172 0.90026635 255 255 255
0.66272926 0.046693064 0.89888483 255 255 255
0.66385007 0.04670424 0.89741218 255 255 255
0.66396046 0.046681099 0.89602876 255 255 255
0.66306019 0.046623744 0.89474022 255 255 255
0.66317046 0.046600636 0.89335865 255 255 255
0.63643491 0.046174735 0.9894464 255 255 255
0.63654232 0.046152219 0.98810029 255 255 255
0.63664973 0.046129704 0.98675418 255 255 255
0.63775826 0.046141595 0.98543632 255 255 255
0.63786578 0.046119049 0.9840883 255 255 255
0.63797343 0.046096504 0.98274034 255 255 255
0.63808107 0.046073955 0.98139238 255 255 255
0.6381886 0.046051409 0.98004436 255 255 255
0.63829625 0.046028864 0.97869641 255 255 255
0.64040768 0.046074748 0.97738254 255 255 255
0.64051557 0.046052143 0.97603083 255 255 255
0.64262784 0.046097837 0.97470576 255 255 255
0.64373839 0.046109289 0.97336179 255 255 255
0.64384675 0.046086587 0.97200447 255 255 255
0.64596045 0.046132009 0.97066265 255 255 255
0.64707184 0.046143271 0.96930748 255 255 255
0.64918649 0.04618847 0.96795255 255 255 255
0.64929557 0.046165612 0.96658593 255 255 255
0.64940476 0.046142757 0.96521932 255 255 255
0.64951384 0.046119899 0.9638527 255 255 255
0.65062654 0.046130914 0.96248263 255 255 255
0.65073574 0.046108026 0.96111411 255 255 255
0.65760624 0.045645036 0.92531824 255 255 255
0.65771604 0.045622021 0.92394233 255 255 255
0.65782583 0.045599006 0.92256635 255 255 255
0.65793574 0.045575991 0.92119044 255 255 255
0.63642991 0.04482235 0.98946863 255 255 255
0.63653743 0.044799834 0.98812252 255 255 255
0.63664484 0.044777319 0.98677641 255 255 255
0.63775337 0.044787332 0.98545855 255 255 255
0.63786089 0.044764787 0.98411059 255 255 255
0.63796854 0.044742242 0.98276258 255 255 255
0.63807619 0.044719696 0.98141462 255 255 255
0.63818371 0.044697151 0.98006666 255 255 255
0.64029479 0.044739351 0.97875655 255 255 255
0.64040279 0.044716742 0.97740483 255 255 255
0.64051068 0.044694133 0.97605312 255 255 255
0.64262295 0.044736087 0.97472811 255 255 255
0.64273119 0.044713415 0.9733727 255 255 255
0.64384186 0.044722963 0.97202688 255 255 255
0.64595544 0.044764638 0.97068512 255 255 255
0.64706695 0.044774026 0.96932995 255 255 255
0.64918149 0.044815481 0.96797514 255 255 255
0.64929068 0.044792622 0.96660852 255 255 255
0.64939976 0.044769764 0.96524191 255 255 255
0.64950883 0.044746906 0.96387523 255 255 255
0.64961791 0.044724047 0.96250862 255 255 255
0.65073073 0.044733159 0.9611367 255 255 255
0.65084004 0.044710271 0.95976824 255 255 255
0.65094924 0.044687383 0.95839977 255 255 255
0.65306664 0.044728246 0.95700949 255 255 255
0.6540525 0.044521682 0.94465953 255 255 255
0.65215087 0.044435605 0.94334638 255 255 255
0.65226007 0.044412717 0.94197792 255 255 255
0.65236938 0.044389829 0.9406094 255 255 255
0.65661263 0.0444698 0.93772447 255 255 255
0.65672243 0.044446789 0.93634856 255 255 255
0.63753319 0.043478169 0.98817676 255 255 255
0.63764083 0.043455619 0.9868288 255 255 255
0.63774836 0.043433074 0.98548079 255 255 255
0.63785601 0.043410528 0.98413283 255 255 255
0.63796365 0.043387983 0.98278487 255 255 255
0.63807118 0.043365434 0.98143685 255 255 255
0.63817883 0.043342888 0.98008889 255 255 255
0.6402899 0.043381348 0.9787789 255 255 255
0.64039779 0.043358736 0.97742718 255 255 255
0.64050567 0.043336131 0.97607547 255 255 255
0.64261806 0.043374334 0.97475052 255 255 255
0.64272618 0.043351665 0.97339511 255 255 255
0.64383686 0.043359339 0.9720493 255 255 255
0.64595056 0.043397266 0.9707076 255 255 255
0.64706194 0.04340478 0.96935248 255 255 255
0.6491766 0.043442488 0.96799767 255 255 255
0.64928567 0.043419629 0.96663105 255 255 255
0.64939475 0.043396775 0.96526444 255 255 255
0.64950383 0.043373916 0.96389782 255 255 255
0.6496129 0.043351058 0.96253121 255 255 255
0.65072572 0.043358296 0.96115935 255 255 255
0.65083504 0.043335408 0.95979083 255 255 255
0.65094423 0.04331252 0.95842236 255 255 255
0.65306163 0.043349631 0.95703214 255 255 255
0.65317118 0.043326683 0.95565993 255 255 255
0.65328074 0.043303728 0.95428771 255 255 255
0.65539944 0.043340594 0.95288259 255 255 255
0.65550923 0.043317579 0.95150667 255 255 255
0.65561914 0.043294564 0.9501307 255 255 255
0.65572894 0.043271553 0.94875479 255 255 255
0.65583873 0.043248542 0.94737881 255 255 255
0.65594864 0.043225527 0.9460029 255 255 255
0.65404749 0.043143071 0.94468218 255 255 255
0.65214586 0.043060742 0.94336897 255 255 255
0.65225518 0.04303785 0.94200051 255 255 255
0.65236437 0.043014962 0.94063199 255 255 255
0.65660763 0.043087445 0.93774718 255 255 255
0.65671742 0.04306443 0.93637127 255 255 255
0.6375283 0.042123906 0.98819906 255 255 255
0.63763583 0.042101361 0.98685104 255 255 255
0.63774347 0.042078815 0.98550308 255 255 255
0.63785112 0.04205627 0.98415512 255 255 255
0.63795865 0.042033724 0.9828071 255 255 255
0.63806629 0.042011179 0.98145914 255 255 255
0.63817394 0.041988634 0.98011118 255 255 255
0.64028502 0.042023342 0.97880119 255 255 255
0.6403929 0.042000733 0.97744948 255 255 255
0.64050078 0.041978128 0.97609776 255 255 255
0.64261305 0.04201258 0.97477287 255 255 255
0.6427213 0.041989911 0.97341746 255 255 255
0.64383197 0.041995712 0.97207171 255 255 255
0.64594555 0.042029895 0.97073007 255 255 255
0.64705694 0.042035539 0.96937495 255 255 255
0.64917159 0.042069495 0.96802026 255 255 255
0.64928067 0.042046636 0.96665365 255 255 255
0.64938974 0.042023782 0.96528703 255 255 255
0.64949882 0.042000923 0.96392041 255 255 255
0.6496079 0.041978065 0.96255374 255 255 255
0.65072072 0.041983433 0.96118194 255 255 255
0.65083003 0.041960545 0.95981342 255 255 255
0.65093923 0.041937657 0.95844495 255 255 255
0.65305662 0.041971024 0.95705479 255 255 255
0.65316617 0.041948073 0.95568258 255 255 255
0.65327573 0.041925121 0.95431036 255 255 255
0.65539443 0.041958239 0.9529053 255 255 255
0.65550423 0.041935228 0.95152938 255 255 255
0.65561414 0.041912213 0.95015341 255 255 255
0.65572393 0.041889198 0.9487775 255 255 255
0.65583372 0.041866183 0.94740152 255 255 255
0.65594363 0.041843168 0.94602561 255 255 255
0.65404248 0.041764461 0.94470483 255 255 255
0.65415204 0.041741513 0.94333261 255 255 255
0.65426159 0.041718557 0.94196039 255 255 255
0.65437114 0.04169561 0.94058818 255 255 255
0.65749884 0.041755825 0.93911082 255 255 255
0.65760887 0.041732781 0.93773299 255 255 255
0.65771878 0.041709736 0.93635517 255 255 255
0.6396327 0.040800981 0.98693377 255 255 255
0.63974059 0.040778376 0.98558205 255 255 255
0.63984847 0.040755767 0.98423034 255 255 255
0.63995636 0.040733159 0.98287863 255 255 255
0.64006424 0.04071055 0.98152691 255 255 255
0.64017212 0.040687941 0.9801752 255 255 255
0.64028001 0.040665336 0.97882354 255 255 255
0.64239168 0.040696174 0.97750616 255 255 255
0.64249992 0.040673502 0.97615069 255 255 255
0.64361024 0.040677492 0.97480869 255 255 255
0.64572334 0.04070805 0.97347456 255 255 255
0.64583194 0.040685289 0.97211355 255 255 255
0.64694321 0.040689088 0.97076035 255 255 255
0.64905751 0.040719368 0.96940947 255 255 255
0.64916658 0.040696509 0.96804285 255 255 255
0.64927566 0.040673651 0.96667624 255 255 255
0.64938474 0.040650792 0.96530956 255 255 255
0.64949381 0.040627934 0.96394295 255 255 255
0.64960301 0.040605076 0.96257633 255 255 255
0.65071583 0.04060857 0.96120453 255 255 255
0.65082502 0.040585682 0.95983601 255 255 255
0.65093422 0.040562794 0.95846754 255 255 255
0.65305161 0.040592413 0.95707744 255 255 255
0.65316117 0.040569462 0.95570523 255 255 255
0.65327072 0.04054651 0.95433301 255 255 255
0.65538943 0.040575884 0.95292807 255 255 255
0.65549922 0.040552869 0.95155209 255 255 255
0.65560901 0.040529855 0.95017618 255 255 255
0.65571892 0.04050684 0.94880021 255 255 255
0.65683389 0.040509865 0.94740039 255 255 255
0.65694392 0.04048682 0.94602263 255 255 255
0.65705383 0.040463775 0.94464481 255 255 255
0.65615821 0.040414788 0.94329643 255 255 255
0.65626812 0.040391773 0.94192046 255 255 255
0.6573838 0.040394641 0.94051135 255 255 255
0.65749383 0.040371597 0.93913358 255 255 255
0.65760374 0.040348552 0.93775576 255 255 255
0.65771377 0.040325508 0.93637794 255 255 255
0.64452326 0.039591089 0.98846841 255 255 255
0.6396277 0.039442979 0.98695606 255 255 255
0.63973558 0.039420374 0.98560435 255 255 255
0.63984346 0.039397761 0.98425269 255 255 255
0.63995147 0.039375156 0.98290098 255 255 255
0.64005935 0.039352544 0.98154926 255 255 255
0.64016724 0.039329939 0.98019755 255 255 255
0.64027512 0.03930733 0.97884583 255 255 255
0.64238679 0.03933442 0.97752851 255 255 255
0.64249492 0.039311752 0.9761731 255 255 255
0.64360535 0.039313868 0.9748311 255 255 255
0.64371371 0.039291166 0.97347385 255 255 255
0.64582694 0.039317917 0.97213602 255 255 255
0.6469382 0.039319847 0.97078288 255 255 255
0.6490525 0.039346375 0.969432 255 255 255
0.64916158 0.039323516 0.96806538 255 255 255
0.64927065 0.039300658 0.96669877 255 255 255
0.64937973 0.039277803 0.96533215 255 255 255
0.64948893 0.039254945 0.96396554 255 255 255
0.649598 0.039232086 0.96259892 255 255 255
0.65071082 0.039233707 0.96122712 255 255 255
0.65082002 0.039210819 0.9598586 255 255 255
0.65092921 0.039187931 0.95849013 255 255 255
0.65304661 0.039213806 0.95710009 255 255 255
0.65315616 0.039190851 0.95572788 255 255 255
0.65326571 0.039167903 0.95435566 255 255 255
0.65538442 0.039193526 0.95295078 255 255 255
0.65549421 0.039170515 0.9515748 255 255 255
0.655604 0.0391475 0.95019889 255 255 255
0.65571392 0.039124489 0.94882292 255 255 255
0.65682888 0.039125636 0.94742316 255 255 255
0.65693891 0.039102592 0.94604534 255 255 255
0.65704882 0.039079547 0.94466752 255 255 255
0.6561532 0.039032433 0.94331914 255 255 255
0.65626311 0.039009418 0.94194317 255 255 255
0.65737879 0.039010413 0.94053411 255 255 255
0.65748882 0.038987368 0.93915629 255 255 255
0.65759873 0.038964324 0.93777847 255 255 255
0.65770876 0.038941279 0.93640071 255 255 255
0.64741111 0.03831625 0.98995394 255 255 255
