ply
format ascii 1.0
comment PCL generated
element vertex 946
property float x
property float y
property float z
property uchar red
property uchar green
property uchar blue
element camera 0
property float view_px
property float view_py
property float view_pz
property float x_axisx
property float x_axisy
property float x_axisz
property float y_axisx
property float y_axisy
property float y_axisz
property float z_axisx
property float z_axisy
property float z_axisz
property float focal
property float scalex
property float scaley
property float centerx
property float centery
property int viewportx
property int viewporty
property float k1
property float k2
end_header
0.0078540444 0.027246721 0.0077867508 255 255 255
0.0075153112 0.0273825 0.0068528652 255 255 255
0.0061493516 0.027675986 0.0061081052 255 255 255
0.0058112144 0.027811512 0.0051759481 255 255 255
0.0075252056 0.027632646 0.0038586259 255 255 255
0.0061604381 0.027925618 0.0031173229 255 255 255
0.0058217049 0.028061397 0.0021834373 255 255 255
0.0054829717 0.028197184 0.0012495518 255 255 255
0.0051442981 0.028332964 0.0003156662 255 255 255
0.0048055649 0.028468743 -0.00061821938 255 255 255
0.0054890513 0.028448842 -0.001755178 255 255 255
0.0061712861 0.028429464 -0.0028955936 255 255 255
0.0068522692 0.028410569 -0.0040394664 255 255 255
0.0075320601 0.028392181 -0.0051869154 255 255 255
0.0071908236 0.028528973 -0.0061277747 255 255 255
0.006849587 0.028665766 -0.0070685744 255 255 255
0.0065082908 0.028802559 -0.0080094337 255 255 255
0.0061670542 0.028939351 -0.0089502931 255 255 255
0.0058258176 0.029076144 -0.0098911524 255 255 255
0.0054845214 0.029212937 -0.010832012 255 255 255
0.0051432848 0.029349729 -0.011772871 255 255 255
0.0048020482 0.029486522 -0.01271373 255 255 255
0.0054754615 0.029470682 -0.013878524 255 255 255
0.0051335692 0.029607728 -0.014821112 255 255 255
0.004791677 0.029744774 -0.0157637 255 255 255
0.0074881315 0.029426202 -0.017393887 255 255 255
0.0071443915 0.029564008 -0.01834172 255 255 255
0.010846555 0.02909629 -0.02022022 255 255 255
0.010500252 0.02923511 -0.021175027 255 255 255
0.010153949 0.029373929 -0.022129834 255 255 255
0.010817289 0.029362142 -0.023322523 255 255 255
0.011479318 0.029350847 -0.024518728 255 255 255
0.011131704 0.029490173 -0.025476992 255 255 255
0.011791885 0.029479653 -0.026678383 255 255 255
0.011443675 0.029619232 -0.027638435 255 255 255
0.011095464 0.029758811 -0.028598428 255 255 255
0.011753082 0.029749304 -0.029806793 255 255 255
0.013414621 0.029591441 -0.031268775 255 255 255
0.01406908 0.029583201 -0.032485902 255 255 255
0.013718367 0.029723793 -0.033452868 255 255 255
0.014370859 0.029716298 -0.034675181 255 255 255
-0.0060911775 0.033599094 -0.039725661 255 255 255
0.028432906 0.020941742 0.029445708 255 255 255
0.026000679 0.021412566 0.028778493 255 255 255
0.025655627 0.021550879 0.027827144 255 255 255
0.025310576 0.021689191 0.026875854 255 255 255
0.02392453 0.021992728 0.026073575 255 255 255
0.023580074 0.022130787 0.025124013 255 255 255
0.011797845 0.02408094 0.025851965 255 255 255
0.011460364 0.024216212 0.024921596 255 255 255
0.011122942 0.024351485 0.023991168 255 255 255
0.01078546 0.024486758 0.023060799 255 255 255
0.010448039 0.024622031 0.02213037 255 255 255
0.010110557 0.024757303 0.021200001 255 255 255
0.0097730756 0.024892576 0.020269573 255 255 255
0.0094356537 0.025027849 0.019339204 255 255 255
0.011167705 0.024837717 0.018075883 255 255 255
0.011863112 0.024811029 0.016973853 255 255 255
0.011523724 0.024947062 0.016038179 255 255 255
0.011184394 0.025083095 0.015102565 255 255 255
0.010845006 0.025219128 0.014166951 255 255 255
0.0094740987 0.025516622 0.013406456 255 255 255
0.0081044436 0.025813557 0.012649477 255 255 255
0.0067359805 0.026110038 0.011896014 255 255 255
0.006398499 0.026245311 0.010965586 255 255 255
0.0070901513 0.026220135 0.009853065 255 255 255
0.0077804923 0.026195519 0.0087370276 255 255 255
0.0074417591 0.026331298 0.0078032017 255 255 255
0.0071030259 0.026467077 0.0068693161 255 255 255
0.0067643523 0.026602857 0.0059354305 255 255 255
0.0064256191 0.026738636 0.005001545 255 255 255
0.0071121454 0.026715495 0.0038750768 255 255 255
0.0057481527 0.027010195 0.0031337738 255 255 255
0.0054094195 0.027145974 0.0021998882 255 255 255
0.0050707459 0.027281761 0.0012660027 255 255 255
0.0037092566 0.027575403 0.00053167343 255 255 255
0.0033711791 0.02771093 -0.00040048361 255 255 255
0.0040545464 0.027689099 -0.0015356541 255 255 255
0.0047366619 0.027667731 -0.0026742816 255 255 255
0.0043973327 0.027803764 -0.0036099553 255 255 255
0.007116735 0.027469918 -0.0051703453 255 255 255
0.0067754388 0.027606711 -0.0061112046 255 255 255
0.0064342022 0.027743503 -0.0070520639 255 255 255
0.0060929656 0.027880296 -0.0079929233 255 255 255
0.0057516694 0.028017089 -0.008933723 255 255 255
0.0054104328 0.028153881 -0.0098745823 255 255 255
0.0050691962 0.028290674 -0.010815442 255 255 255
0.0047279596 0.028427467 -0.011756301 255 255 255
0.004386723 0.028564259 -0.01269716 255 255 255
0.0040454268 0.028701052 -0.01363802 255 255 255
0.0037041903 0.028837845 -0.014578879 255 255 255
0.0033629537 0.028974637 -0.015519679 255 255 255
0.0060576797 0.028650671 -0.017148018 255 255 255
0.0057145357 0.028788224 -0.018094122 255 255 255
0.0084035993 0.028466523 -0.019738138 255 255 255
0.008058548 0.028604835 -0.020689487 255 255 255
0.0077134967 0.028743163 -0.021640778 255 255 255
0.008377254 0.028729141 -0.02282995 255 255 255
0.0090398192 0.02871564 -0.024022639 255 255 255
0.0086935163 0.02885446 -0.024977386 255 255 255
0.0093541741 0.028841704 -0.02617532 255 255 255
0.0090072751 0.028980777 -0.027131855 255 255 255
0.009665966 0.028968811 -0.028334916 255 255 255
0.010323465 0.028957337 -0.029541552 255 255 255
0.012988508 0.028645247 -0.031251788 255 255 255
0.011634588 0.028935879 -0.031965196 255 255 255
0.011285126 0.029075965 -0.032928765 255 255 255
0.013943255 0.028766692 -0.034658134 255 255 255
-0.0065057278 0.03267853 -0.039709151 255 255 255
0.026968539 0.020173766 0.029604495 255 255 255
0.026622891 0.020312332 0.028651476 255 255 255
0.025235653 0.020618349 0.027843893 255 255 255
0.024890602 0.020756662 0.026892602 255 255 255
0.02350533 0.021061927 0.026090264 255 255 255
0.023160875 0.021199986 0.025140703 255 255 255
0.01138711 0.023168914 0.025868356 255 255 255
0.011049628 0.023304187 0.024937928 255 255 255
0.010712206 0.02343946 0.024007559 255 255 255
0.010374725 0.023574732 0.02307719 255 255 255
0.010037243 0.023710005 0.022146761 255 255 255
0.0096998215 0.023845278 0.021216333 255 255 255
0.00936234 0.02398055 0.020285964 255 255 255
0.0090249181 0.024115823 0.019355536 255 255 255
0.0086874366 0.024251096 0.018425167 255 255 255
0.010416687 0.024058044 0.017158449 255 255 255
0.010078013 0.024193823 0.016224563 255 255 255
0.0097392797 0.02432961 0.015290678 255 255 255
0.0094005466 0.02446539 0.014356792 255 255 255
0.0080310106 0.024764322 0.013598025 255 255 255
0.0066626668 0.02506274 0.012842774 255 255 255
0.0063252449 0.025198013 0.011912346 255 255 255
0.0059877634 0.025333285 0.010981977 255 255 255
0.0056503415 0.025468558 0.010051548 255 255 255
0.0063405633 0.025441952 0.0089373589 255 255 255
0.0060024858 0.025577478 0.0080052018 255 255 255
0.0056644082 0.025713012 0.0070730448 255 255 255
0.0053263307 0.025848538 0.0061408877 255 255 255
0.0049882531 0.025984064 0.0052087903 255 255 255
0.0056746006 0.025958963 0.0040840507 255 255 255
0.0053358674 0.026094742 0.0031501651 255 255 255
0.0039739609 0.026390642 0.0024123788 255 255 255
0.0036358833 0.026526168 0.0014802217 255 255 255
0.0022757649 0.026821285 0.00074756145 255 255 255
0.0019382834 0.026956566 -0.00018280745 255 255 255
0.0016008019 0.027091838 -0.001113236 255 255 255
0.0033035874 0.026909426 -0.0024530888 255 255 255
0.0039842725 0.026886627 -0.0035934448 255 255 255
0.0036448836 0.02702266 -0.0045291185 255 255 255
0.0053418875 0.026842527 -0.0058846474 255 255 255
0.0060188174 0.026821226 -0.0070354939 255 255 255
0.004660666 0.027115606 -0.0077628493 255 255 255
0.0043200254 0.027252145 -0.0087019801 255 255 255
0.0039794445 0.027388684 -0.0096411109 255 255 255
0.0046538711 0.027368404 -0.010798872 255 255 255
0.0043125749 0.027505197 -0.011739731 255 255 255
0.0039713383 0.027641982 -0.01268059 255 255 255
0.0036301017 0.027778774 -0.013621449 255 255 255
0.0032888651 0.027915582 -0.014562309 255 255 255
0.0029476285 0.028052375 -0.015503168 255 255 255
0.0026063323 0.028189167 -0.016444027 255 255 255
0.0042862892 0.028015852 -0.017846584 255 255 255
0.0039438009 0.028153151 -0.018790901 255 255 255
0.0066292882 0.027826861 -0.020438373 255 255 255
0.0072935224 0.027810618 -0.021624029 255 255 255
0.0069485307 0.027948931 -0.022575319 255 255 255
0.0066034794 0.028087258 -0.023526609 255 255 255
0.0072652102 0.028072044 -0.024719298 255 255 255
0.0069195628 0.02821061 -0.025672317 255 255 255
0.0075793862 0.028196156 -0.026870191 255 255 255
0.0072330832 0.028334975 -0.027824938 255 255 255
0.0078911185 0.028321296 -0.029028118 255 255 255
0.0085477829 0.028308094 -0.030234635 255 255 255
0.0082002282 0.028447419 -0.031192899 255 255 255
0.0088550448 0.028435022 -0.032404721 255 255 255
-0.0079157352 0.031906903 -0.039419949 255 255 255
0.026547849 0.019239537 0.029621243 255 255 255
0.026202142 0.019378103 0.028668225 255 255 255
0.024815738 0.019685835 0.027860641 255 255 255
0.024470627 0.019824147 0.026909351 255 255 255
0.023086131 0.020131096 0.026107013 255 255 255
0.022741675 0.020269156 0.025157452 255 255 255
0.010976374 0.022256888 0.025884748 255 255 255
0.010638893 0.022392161 0.024954319 255 255 255
0.010301471 0.022527434 0.02402395 255 255 255
0.0099639893 0.022662707 0.023093522 255 255 255
0.0096265674 0.022797979 0.022163093 255 255 255
0.0092890859 0.022933252 0.021232724 255 255 255
0.0089516044 0.023068525 0.020302355 255 255 255
0.0086141825 0.023203798 0.019371927 255 255 255
0.008276701 0.02333907 0.018441558 255 255 255
0.0079392791 0.023474343 0.017511129 255 255 255
0.0076017976 0.023609623 0.01658076 255 255 255
0.0062330365 0.023910254 0.015821934 255 255 255
0.0058962107 0.024045274 0.014893293 255 255 255
0.0055593848 0.024180293 0.013964653 255 255 255
0.0062519908 0.024150714 0.012859166 255 255 255
0.0059145093 0.024285987 0.011928737 255 255 255
0.0045489073 0.024585351 0.011178672 255 255 255
0.0042120814 0.024720371 0.010250032 255 255 255
0.0049021244 0.024691805 0.0091375709 255 255 255
0.0045647025 0.024827078 0.0082071424 255 255 255
0.004227221 0.024962351 0.0072767735 255 255 255
0.0038897395 0.025097623 0.0063463449 255 255 255
0.0035523176 0.025232896 0.005415976 255 255 255
0.0032148361 0.025368169 0.0044855475 255 255 255
0.0028774142 0.025503442 0.0035551786 255 255 255
0.0025399327 0.025638714 0.0026247501 255 255 255
0.0022024512 0.025773987 0.0016943812 255 255 255
0.0018650293 0.02590926 0.00076395273 255 255 255
0.00050699711 0.026205592 3.4809113e-05 255 255 255
0.00017017126 0.026340611 -0.00089389086 255 255 255
0.00085264444 0.026315086 -0.0020272136 255 255 255
0.0015339255 0.026290044 -0.0031641126 255 255 255
0.0022138357 0.026265547 -0.0043044686 255 255 255
0.0028924942 0.026241526 -0.0054482818 255 255 255
0.002553165 0.026377559 -0.0063838959 255 255 255
0.0032299161 0.026354313 -0.0075329542 255 255 255
0.0028899312 0.026490599 -0.0084702969 255 255 255
0.0025499463 0.026626885 -0.0094076395 255 255 255
0.003224194 0.02660466 -0.010563672 255 255 255
0.0028836131 0.026741199 -0.011502802 255 255 255
0.0025429726 0.026877739 -0.012441874 255 255 255
0.0032147765 0.026856504 -0.013604879 255 255 255
0.0018617511 0.027150825 -0.014320076 255 255 255
0.0015211701 0.027287364 -0.015259206 255 255 255
0.0021910071 0.027266882 -0.016427457 255 255 255
0.0018497705 0.027403675 -0.017368317 255 255 255
0.0025177002 0.027383968 -0.018541753 255 255 255
0.0041929483 0.027208537 -0.019952953 255 255 255
0.0048577189 0.027190089 -0.021135151 255 255 255
0.0055212379 0.027172148 -0.022320807 255 255 255
0.0061835051 0.027154744 -0.02350992 255 255 255
0.0058384538 0.027293056 -0.02446121 255 255 255
0.0054934025 0.027431369 -0.0254125 255 255 255
0.0061531067 0.027414963 -0.026608646 255 255 255
0.0058074594 0.027553514 -0.027561665 255 255 255
0.0054617524 0.027692094 -0.028514683 255 255 255
0.0061189532 0.027676687 -0.029717743 255 255 255
0.0057726502 0.027815506 -0.03067255 255 255 255
0.0084311962 0.027493954 -0.032387793 255 255 255
-0.0083295703 0.030988052 -0.039403439 255 255 255
0.026818454 0.018028177 0.031544149 255 255 255
0.026472747 0.018166743 0.030591071 255 255 255
0.0261271 0.018305309 0.029638052 255 255 255
0.025781393 0.018443875 0.028684974 255 255 255
0.022315681 0.019095048 0.028168261 255 255 255
0.01989311 0.019574068 0.027514815 255 255 255
0.018511832 0.019881755 0.026719451 255 255 255
0.018169999 0.020018801 0.025776803 255 255 255
0.010565639 0.021344863 0.025901079 255 255 255
0.010228157 0.021480136 0.02497071 255 255 255
0.0098907351 0.021615408 0.024040282 255 255 255
0.0095532537 0.021750681 0.023109913 255 255 255
0.0092157722 0.021885954 0.022179484 255 255 255
0.0088783503 0.022021227 0.021249115 255 255 255
0.007507205 0.02232483 0.020481586 255 255 255
0.0071703792 0.02245985 0.019552886 255 255 255
0.0068335533 0.022594869 0.018624246 255 255 255
0.0075284839 0.022562318 0.017527521 255 255 255
0.003066361 0.023366891 0.017276466 255 255 255
0.0027313828 0.02350115 0.016353011 255 255 255
0.0023964643 0.02363541 0.015429616 255 255 255
0.0020615458 0.023769669 0.014506161 255 255 255
0.0017266273 0.023903929 0.013582766 255 255 255
0.0044757724 0.023540005 0.012123644 255 255 255
0.0041389465 0.023675025 0.011195004 255 255 255
0.0038021207 0.023810044 0.010266364 255 255 255
0.0034652948 0.023945063 0.0093377233 255 255 255
0.003128469 0.024080083 0.0084090233 255 255 255
0.0038164854 0.024050325 0.0072931051 255 255 255
0.0024548173 0.024350122 0.0065517426 255 255 255
0.0021179914 0.024485148 0.0056230426 255 255 255
0.0017811656 0.024620168 0.0046944022 255 255 255
0.0014443398 0.024755187 0.0037657619 255 255 255
0.0011075139 0.024890207 0.0028371215 255 255 255
0.00077068806 0.025025226 0.0019084215 255 255 255
0.00043386221 0.025160246 0.00097978115 255 255 255
9.7036362e-05 0.025295265 5.1140785e-05 255 255 255
-0.00023978949 0.025430284 -0.00087755919 255 255 255
0.00044190884 0.02540306 -0.0020108819 255 255 255
0.00010442734 0.025538333 -0.0029412508 255 255 255
-0.00023299456 0.025673606 -0.0038716793 255 255 255
0.0014628172 0.025485873 -0.0052219033 255 255 255
0.0011241436 0.025621653 -0.0061557889 255 255 255
0.0018007755 0.02559644 -0.0073030591 255 255 255
0.0014613867 0.025732473 -0.0082386732 255 255 255
0.0021361709 0.025708035 -0.0093911886 255 255 255
0.0028096437 0.025684081 -0.010547161 255 255 255
0.0024690032 0.02582062 -0.011486232 255 255 255
0.0021284223 0.02595716 -0.012425363 255 255 255
0.0017877817 0.026093699 -0.013364494 255 255 255
0.0014471412 0.026230246 -0.014303565 255 255 255
0.0011065602 0.026366785 -0.015242696 255 255 255
0.0017756224 0.026344605 -0.016410887 255 255 255
0.0014343858 0.026481397 -0.017351747 255 255 255
0.0010931492 0.02661819 -0.018292606 255 255 255
0.0027675033 0.026439063 -0.019702017 255 255 255
0.0024249554 0.026576363 -0.020646393 255 255 255
0.0040955544 0.026398793 -0.022066295 255 255 255
0.0047576427 0.026379392 -0.02325362 255 255 255
0.0054184794 0.026360527 -0.024444461 255 255 255
0.0050734282 0.026498839 -0.025395811 255 255 255
0.0047283769 0.026637152 -0.026347101 255 255 255
0.0043833852 0.026775464 -0.027298391 255 255 255
0.0050410628 0.026757866 -0.028497934 255 255 255
0.0056974292 0.026740745 -0.029700935 255 255 255
0.0053511262 0.026879564 -0.030655742 255 255 255
-0.0064143538 0.029627636 -0.038991392 255 255 255
-0.0077494979 0.029916823 -0.03965956 255 255 255
0.026397705 0.017093949 0.031560898 255 255 255
0.026052058 0.017232515 0.030607879 255 255 255
0.025706351 0.017371081 0.029654801 255 255 255
0.024320781 0.017682463 0.028845429 255 255 255
0.02085799 0.018338524 0.028330386 255 255 255
0.017399013 0.018993065 0.027825713 255 255 255
0.017057776 0.019129857 0.026884854 255 255 255
0.012567103 0.019953921 0.026546597 255 255 255
0.010154903 0.020432837 0.02591747 255 255 255
0.0098174214 0.02056811 0.024987042 255 255 255
0.008444488 0.020874433 0.024212539 255 255 255
0.0081077218 0.02100946 0.023283899 255 255 255
0.0067366958 0.021315038 0.022514582 255 255 255
0.0064005256 0.021449804 0.02158767 255 255 255
0.0060642958 0.02158457 0.020660758 255 255 255
0.0036634803 0.022058927 0.020062983 255 255 255
0.0033285022 0.022193186 0.019139588 255 255 255
0.0029935837 0.022327445 0.018216133 255 255 255
0.0026586652 0.022461705 0.017292678 255 255 255
0.0023237467 0.022595964 0.016369283 255 255 255
0.0019888282 0.022730224 0.015445828 255 255 255
0.0016538501 0.022864483 0.014522433 255 255 255
0.0013189912 0.022998743 0.013598979 255 255 255
0.0030385852 0.022797465 0.012318552 255 255 255
0.0027023554 0.022932239 0.01139158 255 255 255
0.0023661852 0.023067005 0.010464668 255 255 255
0.0020299554 0.023201771 0.0095377564 255 255 255
0.0016937852 0.023336537 0.0086108446 255 255 255
0.001357615 0.023471303 0.0076839328 255 255 255
0.0010213852 0.023606069 0.006757021 255 255 255
0.000685215 0.023740835 0.0058301091 255 255 255
0.0003489852 0.023875602 0.0049031973 255 255 255
0.0010343194 0.023844875 0.0037820935 255 255 255
0.00069755316 0.023979895 0.0028534532 255 255 255
0.00036066771 0.024114914 0.0019248128 255 255 255
2.3901463e-05 0.024249934 0.00099611282 255 255 255
-0.00031298399 0.024384953 6.7472458e-05 255 255 255
-0.00064975023 0.024519973 -0.00086116791 255 255 255
3.1173229e-05 0.024491034 -0.0019944906 255 255 255
-0.00030630827 0.024626307 -0.0029249191 255 255 255
-0.00064378977 0.02476158 -0.003855288 255 255 255
0.0010505319 0.024570435 -0.0052054524 255 255 255
0.00071185827 0.024706215 -0.006139338 255 255 255
0.00037312508 0.024841994 -0.0070732236 255 255 255
0.0010483861 0.024815336 -0.0082222223 255 255 255
0.00070899725 0.024951369 -0.0091578364 255 255 255
0.0013823509 0.024925455 -0.010312021 255 255 255
0.001042366 0.025061741 -0.011249423 255 255 255
0.00070238113 0.025198027 -0.012186766 255 255 255
0.0013732314 0.025173135 -0.013347924 255 255 255
0.0010325909 0.025309682 -0.014287055 255 255 255
0.00069195032 0.025446221 -0.015226185 255 255 255
0.00035136938 0.025582761 -0.016165257 255 255 255
0.0010190606 0.025559135 -0.017335176 255 255 255
0.00067776442 0.025695927 -0.018276036 255 255 255
0.00033652782 0.02583272 -0.019216895 255 255 255
0.0020080805 0.025650688 -0.020629764 255 255 255
0.0016655326 0.025787987 -0.02157408 255 255 255
0.0023281574 0.025766388 -0.022757947 255 255 255
0.0049985051 0.025427997 -0.024427712 255 255 255
0.0046534538 0.02556631 -0.025379002 255 255 255
0.0043084025 0.025704622 -0.026330352 255 255 255
0.0039634109 0.025842935 -0.027281642 255 255 255
0.0036183596 0.025981247 -0.028232992 255 255 255
0.0052759647 0.025804803 -0.029684126 255 255 255
0.0049296618 0.025943622 -0.030638933 255 255 255
-0.0078234673 0.02885972 -0.038703918 255 255 255
-0.0081641078 0.028996259 -0.03964299 255 255 255
0.025976956 0.016159706 0.031577706 255 255 255
0.025631309 0.016298272 0.030624628 255 255 255
0.025285602 0.016436838 0.029671609 255 255 255
0.023900807 0.016749948 0.028862178 255 255 255
0.02044034 0.017411135 0.028347015 255 255 255
0.016983688 0.018070787 0.027842283 255 255 255
0.016642392 0.01820758 0.026901424 255 255 255
0.012154818 0.019038484 0.026562989 255 255 255
0.0056002736 0.020213887 0.02654326 255 255 255
0.0052653551 0.020348147 0.025619805 255 255 255
0.0059651732 0.020309642 0.024540544 255 255 255
0.0056296587 0.020444155 0.02361536 255 255 255
0.0063274503 0.020406425 0.022530854 255 255 255
0.0059912801 0.020541191 0.021604002 255 255 255
0.0046229362 0.020847693 0.02083987 255 255 255
0.0032557845 0.021153711 0.020079255 255 255 255
0.002920866 0.02128797 0.0191558 255 255 255
0.0025859475 0.02142223 0.018232405 255 255 255
0.0022509694 0.021556489 0.01730895 255 255 255
0.0019161105 0.021690749 0.016385496 255 255 255
0.0015811324 0.021825008 0.015462101 255 255 255
0.0012462139 0.021959268 0.014538646 255 255 255
0.00091129541 0.022093527 0.013615251 255 255 255
0.0026293397 0.021888852 0.012334824 255 255 255
0.001267314 0.022192828 0.011588156 255 255 255
0.00093179941 0.022327341 0.010662973 255 255 255
0.0016207695 0.022293158 0.0095540881 255 255 255
0.00026065111 0.022596367 0.0088126063 255 255 255
-7.4923038e-05 0.022730879 0.007887423 255 255 255
-0.00041049719 0.022865392 0.0069622397 255 255 255
-0.00074607134 0.022999905 0.0060371161 255 255 255
-0.0010815859 0.023134418 0.0051119328 255 255 255
-0.00039637089 0.023101754 0.0039926171 255 255 255
-0.00073260069 0.023236521 0.0030657053 255 255 255
-0.0010687709 0.023371287 0.0021387935 255 255 255
-0.0014049411 0.023506053 0.0012118816 255 255 255
-0.0017411709 0.023640819 0.00028496981 255 255 255
-0.0020773411 0.023775585 -0.00064194202 255 255 255
-0.0013965964 0.023744665 -0.0017734766 255 255 255
-0.0017333627 0.023879685 -0.0027021766 255 255 255
-0.0010545254 0.023849539 -0.0038388968 255 255 255
-0.0013919473 0.023984812 -0.0047693253 255 255 255
-0.0017294288 0.024120085 -0.0056996942 255 255 255
-0.0010529757 0.024090946 -0.0068434477 255 255 255
-0.00037789345 0.024062335 -0.0079906583 255 255 255
-0.00071662664 0.024198115 -0.0089245439 255 255 255
-4.3392181e-05 0.02417025 -0.010077 255 255 255
0.00062853098 0.024142876 -0.011232913 255 255 255
0.00028854609 0.024279162 -0.012170255 255 255 255
0.0009586215 0.024252571 -0.013331413 255 255 255
0.00061798096 0.024389118 -0.014270544 255 255 255
0.00027740002 0.024525657 -0.015209615 255 255 255
-6.3240528e-05 0.024662197 -0.016148746 255 255 255
0.00060367584 0.024636857 -0.017318666 255 255 255
0.00026243925 0.02477365 -0.018259466 255 255 255
-7.879734e-05 0.024910443 -0.019200325 255 255 255
-0.00042003393 0.025047235 -0.020141184 255 255 255
-0.00076133013 0.025184028 -0.021082044 255 255 255
0.00090616941 0.024999596 -0.022501767 255 255 255
0.0015673637 0.024976552 -0.023687363 255 255 255
0.0012242198 0.025114104 -0.024633467 255 255 255
0.0028859973 0.024931952 -0.026068926 255 255 255
0.0035434365 0.02491042 -0.027264893 255 255 255
0.0031983852 0.025048725 -0.028216183 255 255 255
0.002853334 0.025187045 -0.029167533 255 255 255
0.0025082827 0.025325358 -0.030118823 255 255 255
0.0031625628 0.025305092 -0.031323552 255 255 255
-0.010223985 0.028251246 -0.038145721 255 255 255
-0.010563314 0.028387278 -0.039081395 255 255 255
0.021404207 0.016169921 0.029166162 255 255 255
0.02002269 0.016483732 0.028363645 255 255 255
0.019679546 0.016621284 0.0274176 255 255 255
0.019336402 0.016758837 0.026471496 255 255 255
0.011742532 0.018123031 0.02657944 255 255 255
0.0051926374 0.019308701 0.026559472 255 255 255
0.0048577189 0.019442961 0.025636077 255 255 255
0.0055567622 0.019402742 0.024556816 255 255 255
0.0052211881 0.019537255 0.023631632 255 255 255
0.0048856139 0.019671768 0.022706449 255 255 255
0.0045500398 0.019806281 0.021781266 255 255 255
0.0031830668 0.020114265 0.021018922 255 255 255
0.0028481483 0.020248525 0.020095468 255 255 255
0.0025132298 0.020382784 0.019172072 255 255 255
0.0021782517 0.020517044 0.018248618 255 255 255
0.0018433332 0.020651303 0.017325222 255 255 255
0.0015084147 0.020785563 0.016401768 255 255 255
0.0011734962 0.020919822 0.015478313 255 255 255
0.00083857775 0.021054082 0.014554918 255 255 255
0.00050359964 0.021188341 0.013631463 255 255 255
0.00016868114 0.021322608 0.012708068 255 255 255
-0.00016623735 0.02145686 0.011784613 255 255 255
-0.00050115585 0.021591127 0.010861218 255 255 255
-0.00083607435 0.021725386 0.0099377632 255 255 255
-0.0011710525 0.021859646 0.0090143085 255 255 255
-0.001505971 0.021993905 0.0080909133 255 255 255
-0.0018408895 0.022128165 0.0071674585 255 255 255
-0.002175808 0.022262424 0.0062440634 255 255 255
-0.0025107265 0.022396684 0.0053206086 255 255 255
-0.0018256307 0.022362031 0.0042030215 255 255 255
-0.0011417866 0.022327907 0.0030819774 255 255 255
-0.0014779568 0.022462673 0.0021551251 255 255 255
-0.0018141866 0.02259744 0.0012281537 255 255 255
-0.0021503568 0.022732206 0.00030124187 255 255 255
-0.002486527 0.022866972 -0.00062566996 255 255 255
-0.0018065572 0.022834368 -0.0017571449 255 255 255
-0.002143383 0.022969387 -0.0026857853 255 255 255
-0.001465261 0.022937514 -0.0038225651 255 255 255
-0.0018026829 0.023072787 -0.004752934 255 255 255
-0.0021401644 0.023208059 -0.0056833625 255 255 255
-0.0024775863 0.023343332 -0.0066137314 255 255 255
-0.00079017878 0.023146883 -0.0079742074 255 255 255
-0.0011288524 0.023282662 -0.008908093 255 255 255
-0.00045645237 0.023253083 -0.010060489 255 255 255
-0.00079578161 0.023389116 -0.010996163 255 255 255
-0.0011351705 0.023525149 -0.011931777 255 255 255
-0.00046521425 0.023496583 -0.013091147 255 255 255
-0.00080519915 0.023632869 -0.014028549 255 255 255
-0.00013720989 0.023605093 -0.015193105 255 255 255
-0.00047785044 0.023741633 -0.016132236 255 255 255
0.00018835068 0.02371458 -0.017302096 255 255 255
-0.00015288591 0.023851372 -0.018242896 255 255 255
-0.00049418211 0.023988165 -0.019183755 255 255 255
-0.0008354187 0.024124958 -0.020124614 255 255 255
-0.0011766553 0.02426175 -0.021065474 255 255 255
-0.00051432848 0.024236225 -0.022245765 255 255 255
0.001149714 0.024049148 -0.023670733 255 255 255
0.00080657005 0.024186701 -0.024616778 255 255 255
0.00046342611 0.024324261 -0.025562823 255 255 255
0.0011213422 0.024300501 -0.026755393 255 255 255
0.00077754259 0.024438307 -0.027703166 255 255 255
0.0014336109 0.024415329 -0.028900921 255 255 255
0.0020883083 0.024392843 -0.030102074 255 255 255
0.001743257 0.024531156 -0.031053364 255 255 255
0.0004003644 0.024829507 -0.031749547 255 255 255
0.0020504594 0.024647996 -0.033212841 255 255 255
0.0017047524 0.024786562 -0.034165919 255 255 255
0.0023550987 0.024765864 -0.035379291 255 255 255
-0.010637045 0.027334079 -0.03812927 255 255 255
-0.010976374 0.027470112 -0.039064944 255 255 255
-0.011315763 0.027606145 -0.040000558 255 255 255
0.020985782 0.015240818 0.029182851 255 255 255
0.019605041 0.015556343 0.028380334 255 255 255
0.01822561 0.015871324 0.027581275 255 255 255
0.017883062 0.01600863 0.026636958 255 255 255
0.006155014 0.018092304 0.027348578 255 255 255
0.0047850013 0.0184035 0.026575744 255 255 255
0.0044500232 0.01853776 0.025652289 255 255 255
0.0041151047 0.018672027 0.024728894 255 255 255
0.0037801862 0.018806286 0.023805439 255 255 255
0.0024133921 0.01911623 0.023041248 255 255 255
0.0020790696 0.019250236 0.022119582 255 255 255
0.0017448068 0.019384243 0.021197915 255 255 255
0.0014104843 0.019518249 0.020276189 255 255 255
0.0010761619 0.019652255 0.019354522 255 255 255
0.00074189901 0.019786261 0.018432856 255 255 255
0.0014356971 0.019746102 0.017341435 255 255 255
7.3313713e-05 0.020054281 0.016589463 255 255 255
-0.00026100874 0.020188287 0.015667796 255 255 255
-0.00059527159 0.020322293 0.01474607 255 255 255
-0.00092959404 0.020456299 0.013824403 255 255 255
-0.0012639165 0.020590305 0.012902737 255 255 255
-0.0015981793 0.020724311 0.01198101 255 255 255
-0.0019325018 0.020858318 0.011059344 255 255 255
-0.0022667646 0.020992324 0.010137677 255 255 255
-0.0015786886 0.020954445 0.0090305805 255 255 255
-0.0019136071 0.021088704 0.0081071854 255 255 255
-0.0022485256 0.021222964 0.0071837306 255 255 255
-0.0025834441 0.021357223 0.0062602758 255 255 255
-0.0029184222 0.021491483 0.0053368807 255 255 255
-0.0022340417 0.021455131 0.0042193532 255 255 255
-0.0015509725 0.021419294 0.003098309 255 255 255
-0.0018871427 0.02155406 0.0021713972 255 255 255
-0.0022233725 0.021688826 0.0012444854 255 255 255
-0.0025595427 0.021823592 0.00031757355 255 255 255
-0.0028957725 0.021958359 -0.00060933828 255 255 255
-0.0032319427 0.022093132 -0.0015362501 255 255 255
-0.0035681129 0.022227898 -0.0024631619 255 255 255
-0.0039043427 0.022362664 -0.0033900738 255 255 255
-0.0042405128 0.02249743 -0.0043169856 255 255 255
-0.0045767426 0.022632197 -0.0052438974 255 255 255
-0.0039006472 0.022599123 -0.0063840747 255 255 255
-0.0032258034 0.022566579 -0.0075277686 255 255 255
-0.0015411377 0.022367239 -0.0088916421 255 255 255
-0.00086945295 0.022335947 -0.010044038 255 255 255
-0.0012088418 0.022471979 -0.010979712 255 255 255
-0.001548171 0.022608012 -0.011915326 255 255 255
-0.0018875599 0.022744045 -0.01285094 255 255 255
-0.0022268891 0.022880077 -0.013786554 255 255 255
-0.0015590191 0.022850305 -0.014949381 255 255 255
-0.00089240074 0.022821069 -0.016115665 255 255 255
-0.0012330413 0.022957608 -0.017054796 255 255 255
-0.0015736222 0.023094147 -0.017993867 255 255 255
-0.0019142628 0.023230687 -0.018932998 255 255 255
-0.0012507439 0.02320268 -0.020108044 255 255 255
-0.0015919805 0.023339473 -0.021048963 255 255 255
-0.0019332767 0.023476273 -0.021989763 255 255 255
-0.00027012825 0.023285516 -0.023412883 255 255 255
-0.00061267614 0.023422815 -0.024357259 255 255 255
4.5716763e-05 0.023396872 -0.025546253 255 255 255
-0.00029736757 0.023534425 -0.026492298 255 255 255
0.00035911798 0.023509204 -0.027686477 255 255 255
1.5377998e-05 0.02364701 -0.02863431 255 255 255
-0.00032842159 0.023784816 -0.029582143 255 255 255
0.00032556057 0.023760617 -0.030783296 255 255 255
-1.8835068e-05 0.023898676 -0.031732857 255 255 255
0.00063323975 0.023875237 -0.032939255 255 255 255
0.00028818846 0.024013549 -0.033890545 255 255 255
0.00093835592 0.023990899 -0.035102189 255 255 255
-0.011050105 0.026416942 -0.038112819 255 255 255
-0.01337105 0.026871391 -0.038503468 255 255 255
-0.014699399 0.027165867 -0.039161325 255 255 255
0.020567358 0.014311716 0.029199541 255 255 255
0.018151224 0.014808334 0.02854228 255 255 255
0.017808676 0.014945634 0.027597904 255 255 255
0.017466187 0.01508294 0.026653588 255 255 255
0.005746603 0.017185405 0.02736491 255 255 255
0.0033437014 0.017676733 0.026744246 255 255 255
0.0030093789 0.01781074 0.02582258 255 255 255
0.0026751161 0.017944746 0.024900854 255 255 255
0.0023407936 0.018078752 0.023979187 255 255 255
0.0020064712 0.018212758 0.02305752 255 255 255
0.0016722083 0.018346764 0.022135794 255 255 255
0.0013378859 0.01848077 0.021214128 255 255 255
0.001003623 0.018614776 0.020292461 255 255 255
0.00066930056 0.018748783 0.019370735 255 255 255
0.00033503771 0.018882789 0.018449068 255 255 255
7.1525574e-07 0.019016802 0.017527342 255 255 255
-0.0003336072 0.019150808 0.016605675 255 255 255
-0.00066787004 0.019284815 0.015684009 255 255 255
-0.0010021925 0.019418821 0.014762342 255 255 255
-0.0013365149 0.019552827 0.013840616 255 255 255
-0.0016707778 0.019686833 0.012918949 255 255 255
-0.0020051003 0.019820839 0.011997223 255 255 255
-0.0023393631 0.019954845 0.011075556 255 255 255
-0.0026736856 0.020088851 0.01015389 255 255 255
-0.0019863248 0.020049259 0.0090468526 255 255 255
-0.0023213029 0.020183519 0.0081233978 255 255 255
-0.0026562214 0.020317778 0.0072000027 255 255 255
-0.0029911399 0.020452037 0.0062765479 255 255 255
-0.0023068786 0.020413719 0.005160749 255 255 255
-0.0016239882 0.02037593 0.0040415525 255 255 255
-0.001960218 0.020510696 0.0031146407 255 255 255
-0.0022963881 0.020645462 0.0021877289 255 255 255
-0.0026325583 0.020780228 0.0012608171 255 255 255
-0.0029687881 0.020914994 0.00033390522 255 255 255
-0.0033049583 0.02104976 -0.00059300661 255 255 255
-0.0036411285 0.021184534 -0.0015199184 255 255 255
-0.0049914122 0.021489829 -0.0022405982 255 255 255
-0.0053269267 0.021624342 -0.0031657815 255 255 255
-0.0056625009 0.021758854 -0.0040909648 255 255 255
-0.005998075 0.021893367 -0.0050160885 255 255 255
-0.0053220987 0.021858364 -0.0061544776 255 255 255
-0.0046474338 0.021823853 -0.0072963834 255 255 255
-0.001953423 0.021451786 -0.0088752508 255 255 255
-0.0012825131 0.021418795 -0.010027587 255 255 255
-0.001621902 0.021554828 -0.010963202 255 255 255
-0.0019612312 0.02169086 -0.011898816 255 255 255
-0.0023005605 0.021826893 -0.012834489 255 255 255
-0.0026399493 0.021962926 -0.013770103 255 255 255
-0.0019728541 0.02193144 -0.014932871 255 255 255
-0.002312839 0.022067726 -0.015870273 255 255 255
-0.0026528239 0.022204012 -0.016807616 255 255 255
-0.0029928088 0.022340298 -0.017744958 255 255 255
-0.0023288131 0.022310123 -0.018916488 255 255 255
-0.0026694536 0.022446662 -0.019855618 255 255 255
-0.0020073652 0.02241721 -0.021032393 255 255 255
-0.0023486018 0.02255401 -0.021973193 255 255 255
-0.0016884804 0.022525303 -0.023155153 255 255 255
-0.002030313 0.022662349 -0.024097741 255 255 255
-0.0013720393 0.022634424 -0.025284946 255 255 255
-0.00071507692 0.022607021 -0.026475608 255 255 255
-0.0010582209 0.022744574 -0.027421713 255 255 255
-0.00040304661 0.022717908 -0.02861762 255 255 255
-0.0007468462 0.022855714 -0.029565454 255 255 255
-9.3638897e-05 0.022829801 -0.030766606 255 255 255
-0.00043803453 0.02296786 -0.031716168 255 255 255
0.00021326542 0.022942722 -0.032922506 255 255 255
-0.00013178587 0.023081034 -0.033873856 255 255 255
0.00051766634 0.023056671 -0.03508538 255 255 255
0.0001719594 0.023195237 -0.036038458 255 255 255
-0.00017368793 0.023333803 -0.036991537 255 255 255
-0.013444483 0.025822125 -0.03755492 255 255 255
-0.014772654 0.026118569 -0.038214505 255 255 255
-0.015110075 0.026253842 -0.039144933 255 255 255
0.017734289 0.013882659 0.02855885 255 255 255
0.017391801 0.014019959 0.027614534 255 255 255
0.017049253 0.014157265 0.026670218 255 255 255
0.0043045878 0.016458854 0.027531683 255 255 255
0.0029367805 0.016773246 0.026760459 255 255 255
0.0026025176 0.016907252 0.025838792 255 255 255
0.0022681952 0.017041259 0.024917066 255 255 255
0.0019338727 0.017175265 0.023995399 255 255 255
0.0015996099 0.017309271 0.023073733 255 255 255
0.0012652874 0.017443277 0.022152007 255 255 255
0.00093102455 0.017577283 0.02123034 255 255 255
0.0005967021 0.017711289 0.020308673 255 255 255
0.00026243925 0.017845295 0.019386947 255 255 255
-7.1883202e-05 0.017979302 0.018465281 255 255 255
-0.00040620565 0.018113315 0.017543614 255 255 255
-0.0007404685 0.018247321 0.016621888 255 255 255
-0.001074791 0.018381327 0.015700221 255 255 255
-0.0014090538 0.018515334 0.014778554 255 255 255
-0.0017433763 0.01864934 0.013856828 255 255 255
-0.0020776391 0.018783346 0.012935162 255 255 255
-0.0024119616 0.018917352 0.012013495 255 255 255
-0.002746284 0.019051358 0.011091769 255 255 255
-0.0030805469 0.019185364 0.010170102 255 255 255
-0.0034148693 0.01931937 0.0092484355 255 255 255
-0.0027289391 0.019278318 0.0081396699 255 255 255
-0.0030638576 0.019412577 0.0072162151 255 255 255
-0.0033987761 0.019546837 0.00629282 255 255 255
-0.0037336946 0.019681096 0.0053693652 255 255 255
-0.0030508637 0.019641317 0.0042518973 255 255 255
-0.0033864379 0.019775838 0.003326714 255 255 255
-0.003722012 0.01991035 0.0024015307 255 255 255
-0.0040575862 0.020044863 0.0014763474 255 255 255
-0.0043931603 0.020179376 0.00055116415 255 255 255
-0.0026996136 0.019968383 -0.00077944994 255 255 255
-0.005064249 0.020448402 -0.0012991428 255 255 255
-0.0064131618 0.020755172 -0.0020180345 255 255 255
-0.0067480803 0.020889431 -0.0029414892 255 255 255
-0.0070829988 0.021023691 -0.003864944 255 255 255
-0.0074179769 0.021157958 -0.0047883391 255 255 255
-0.0057312846 0.020949751 -0.0061382055 255 255 255
-0.0060675144 0.021084517 -0.0070651174 255 255 255
-0.0053942204 0.021048546 -0.0082086921 255 255 255
-0.0027044415 0.020672113 -0.0097926855 255 255 255
-0.0030431151 0.020807892 -0.010726571 255 255 255
-0.0033818483 0.020943671 -0.011660457 255 255 255
-0.0027136207 0.020909727 -0.012817979 255 255 255
-0.0030530095 0.021045759 -0.013753653 255 255 255
-0.0033923388 0.021181792 -0.014689267 255 255 255
-0.003731668 0.021317825 -0.015624881 255 255 255
-0.0030665994 0.021285161 -0.016791105 255 255 255
-0.0044103861 0.021589898 -0.017496109 255 255 255
-0.0047497749 0.02172593 -0.018431723 255 255 255
-0.0040865541 0.021694019 -0.019603193 255 255 255
-0.0034246445 0.021662623 -0.020778179 255 255 255
-0.0027639866 0.021631733 -0.021956682 255 255 255
-0.0031052232 0.021768525 -0.022897542 255 255 255
-0.0034464598 0.021905318 -0.023838341 255 255 255
-0.0027883649 0.021875426 -0.025023758 255 255 255
-0.0021314621 0.021846049 -0.026212692 255 255 255
-0.0014758706 0.02181717 -0.027405083 255 255 255
-0.00082147121 0.021788791 -0.028600991 255 255 255
-0.0011652708 0.021926597 -0.029548764 255 255 255
-0.00051283836 0.021899 -0.030749857 255 255 255
-0.000857234 0.022037059 -0.031699479 255 255 255
-0.00020670891 0.022010207 -0.032905757 255 255 255
-0.0005517602 0.02214852 -0.033857048 255 255 255
9.6917152e-05 0.022122458 -0.035068631 255 255 255
-0.0012418032 0.022425145 -0.035759687 255 255 255
-0.0015868545 0.022563457 -0.036711037 255 255 255
-0.014845908 0.025071286 -0.037267745 255 255 255
-0.015183389 0.025206558 -0.038198173 255 255 255
-0.015520871 0.025341831 -0.039128602 255 255 255
0.016974866 0.013094254 0.027631164 255 255 255
0.0062986612 0.015054755 0.028173923 255 255 255
0.0038969517 0.015553668 0.027547956 255 255 255
0.0025299191 0.015869759 0.026776671 255 255 255
0.0021955967 0.016003765 0.025855005 255 255 255
0.0018613338 0.016137771 0.024933279 255 255 255
0.0015270114 0.016271777 0.024011612 255 255 255
0.0011927485 0.016405784 0.023089945 255 255 255
-0.00017052889 0.01672034 0.022329152 255 255 255
-0.00050419569 0.016854092 0.021409214 255 255 255
-0.00083786249 0.016987845 0.020489275 255 255 255
-0.00014448166 0.016941808 0.01940316 255 255 255
-0.00047880411 0.017075814 0.018481493 255 255 255
-0.00081306696 0.017209828 0.017559826 255 255 255
-0.0011473894 0.017343834 0.0166381 255 255 255
-0.0014816523 0.01747784 0.015716434 255 255 255
-0.0018159747 0.017611846 0.014794767 255 255 255
-0.0021502376 0.017745852 0.013873041 255 255 255
-0.00248456 0.017879859 0.012951374 255 255 255
-0.0028188825 0.018013865 0.012029707 255 255 255
-0.0031531453 0.018147871 0.011107981 255 255 255
-0.0034874678 0.018281877 0.010186315 255 255 255
-0.0038217306 0.018415883 0.009264648 255 255 255
-0.0041560531 0.018549889 0.0083429217 255 255 255
-0.0044903159 0.018683895 0.0074212551 255 255 255
-0.0048246384 0.018817902 0.0064995885 255 255 255
-0.0041413903 0.01877591 0.0053856373 255 255 255
-0.0034593344 0.018734418 0.0042681694 255 255 255
-0.0037948489 0.018868938 0.0033429861 255 255 255
-0.0041304231 0.019003451 0.0024178028 255 255 255
-0.0044659972 0.019137964 0.0014926791 255 255 255
-0.0048015714 0.019272476 0.00056749582 255 255 255
-0.0031095743 0.019058056 -0.00076311827 255 255 255
-0.0064858794 0.019715726 -0.0010783672 255 255 255
-0.0068208575 0.019849986 -0.002001822 255 255 255
-0.007155776 0.019984245 -0.0029252172 255 255 255
-0.0074906945 0.020118505 -0.0038486719 255 255 255
-0.007825613 0.020252772 -0.0047721267 255 255 255
-0.0071504712 0.020214066 -0.0059087276 255 255 255
-0.0074860454 0.020348579 -0.0068339109 255 255 255
-0.0088304281 0.02065555 -0.0075423717 255 255 255
-0.0091653466 0.02078981 -0.0084658265 255 255 255
-0.0095002651 0.020924069 -0.0093892217 255 255 255
-0.0098351836 0.021058328 -0.010312676 255 255 255
-0.010170102 0.021192588 -0.011236131 255 255 255
-0.010505021 0.021326847 -0.012159526 255 255 255
-0.0068202019 0.020777419 -0.013991416 255 255 255
-0.0041447282 0.020400688 -0.01560843 255 255 255
-0.004484117 0.020536721 -0.016544044 255 255 255
-0.0048234463 0.020672761 -0.017479658 255 255 255
-0.0051627755 0.020808794 -0.018415272 255 255 255
-0.0055021644 0.020944826 -0.019350946 255 255 255
-0.0038392544 0.020742059 -0.020761669 255 255 255
-0.0041798949 0.020878598 -0.021700799 255 255 255
-0.0045204759 0.021015137 -0.022639871 255 255 255
-0.0048611164 0.021151677 -0.023579001 255 255 255
-0.0042030811 0.021119833 -0.02476269 255 255 255
-0.0035463572 0.021088473 -0.025949776 255 255 255
-0.0018935204 0.020889781 -0.027388394 255 255 255
-0.0012398958 0.020859703 -0.028584301 255 255 255
-0.0015836954 0.020997509 -0.029532135 255 255 255
-0.00093203783 0.020968199 -0.030733168 255 255 255
-0.0012764335 0.021106258 -0.03168273 255 255 255
-0.00062668324 0.021077678 -0.032889068 255 255 255
-0.00097173452 0.02121599 -0.033840358 255 255 255
-0.0013167262 0.021354303 -0.034791648 255 255 255
-0.0016617775 0.021492615 -0.035742939 255 255 255
-0.0020068288 0.021630928 -0.036694229 255 255 255
-0.014244258 0.023753427 -0.034460187 255 255 255
-0.01458174 0.0238887 -0.035390615 255 255 255
-0.014919221 0.024023972 -0.036320984 255 255 255
-0.015256643 0.024159245 -0.037251413 255 255 255
-0.015594125 0.024294518 -0.038181782 255 255 255
-0.015931547 0.024429791 -0.03911221 255 255 255
0.016900539 0.012031265 0.02859211 255 255 255
0.0062256455 0.014011391 0.029117167 255 255 255
0.0058894753 0.014146157 0.028190255 255 255 255
0.0045213103 0.014464691 0.027413726 255 255 255
0.0031543374 0.014782727 0.026640713 255 255 255
0.0028194189 0.014916986 0.025717318 255 255 255
0.0014544129 0.015234277 0.024949551 255 255 255
0.0011201501 0.015368283 0.024027824 255 255 255
0.00078582764 0.015502289 0.023106158 255 255 255
-0.00057667494 0.015818551 0.022345364 255 255 255
-0.00091034174 0.015952311 0.021425426 255 255 255
-0.0012440085 0.016086064 0.020505428 255 255 255
-0.00055140257 0.016038314 0.019419432 255 255 255
-0.00088566542 0.01617232 0.018497705 255 255 255
-0.0012199879 0.016306333 0.017576039 255 255 255
-0.0015542507 0.016440332 0.016654313 255 255 255
-0.0018885732 0.016574346 0.015732646 255 255 255
-0.002222836 0.016708352 0.014810979 255 255 255
-0.0025571585 0.016842358 0.013889253 255 255 255
-0.0028914809 0.016976364 0.012967587 255 255 255
-0.0032257438 0.01711037 0.01204592 255 255 255
-0.0035600662 0.017244376 0.011124194 255 255 255
-0.0038943291 0.017378382 0.010202527 255 255 255
-0.0042286515 0.017512389 0.0092808604 255 255 255
-0.0045629144 0.017646395 0.0083591342 255 255 255
-0.0048972368 0.017780401 0.0074374676 255 255 255
-0.0052315593 0.017914407 0.006515801 255 255 255
-0.0055658221 0.018048413 0.0055940747 255 255 255
-0.0048840046 0.018004961 0.0044784546 255 255 255
-0.0052189231 0.018139221 0.0035549998 255 255 255
-0.0045388937 0.018096551 0.0024340749 255 255 255
-0.0048744082 0.018231064 0.0015089512 255 255 255
-0.0052099824 0.018365577 0.00058376789 255 255 255
-0.0045325756 0.018323921 -0.0005440712 255 255 255
-0.0068935752 0.018810518 -0.0010620952 255 255 255
-0.0082402229 0.01912047 -0.0017793775 255 255 255
-0.0085745454 0.019254476 -0.0027011037 255 255 255
-0.0089088082 0.019388482 -0.0036227703 255 255 255
-0.0082332492 0.019347563 -0.0047558546 255 255 255
-0.0075589418 0.019307166 -0.0058924556 255 255 255
-0.007894516 0.019441679 -0.0068176389 255 255 255
-0.0092380643 0.019750342 -0.0075261593 255 255 255
-0.0095729828 0.019884601 -0.0084495544 255 255 255
-0.0099079013 0.020018861 -0.0093730092 255 255 255
-0.010242879 0.02015312 -0.010296404 255 255 255
-0.011583209 0.020460531 -0.010996282 255 255 255
-0.011917531 0.020594537 -0.011917949 255 255 255
-0.0082350969 0.020038024 -0.01374799 255 255 255
-0.0055612922 0.019655921 -0.015363097 255 255 255
-0.0059000254 0.0197917 -0.016296983 255 255 255
-0.0052365065 0.019755609 -0.017463207 255 255 255
-0.0055758357 0.019891642 -0.018398821 255 255 255
-0.0059152246 0.020027675 -0.019334435 255 255 255
-0.005254209 0.01999259 -0.020507634 255 255 255
-0.0055941939 0.020128876 -0.021444976 255 255 255
-0.0059341788 0.020265162 -0.022382319 255 255 255
-0.0062741637 0.020401448 -0.023319721 255 255 255
-0.0066141486 0.020537741 -0.024257064 255 255 255
-0.0039624572 0.020164497 -0.025933206 255 255 255
-0.0023111701 0.019962378 -0.027371764 255 255 255
-0.00165838 0.019930586 -0.028567612 255 255 255
-0.00200212 0.020068392 -0.029515445 255 255 255
-0.0023459196 0.020206198 -0.030463219 255 255 255
-0.0016956329 0.020175412 -0.03166604 255 255 255
-0.0020400286 0.020313472 -0.032615602 255 255 255
-0.0013917089 0.020283476 -0.033823609 255 255 255
-0.0017367005 0.020421788 -0.034774899 255 255 255
-0.0020817518 0.020560101 -0.035726249 255 255 255
-0.0024268031 0.020698413 -0.036677539 255 255 255
-0.014655054 0.022841416 -0.034443796 255 255 255
-0.015329957 0.023111962 -0.036304653 255 255 255
-0.015667379 0.023247235 -0.037235022 255 255 255
-0.01600486 0.023382507 -0.03816539 255 255 255
-0.016342342 0.02351778 -0.039095819 255 255 255
0.011996806 0.011764728 0.031205833 255 255 255
0.011657476 0.01190076 0.030270159 255 255 255
0.0092519522 0.01240927 0.029624879 255 255 255
0.0089138746 0.012544796 0.028692722 255 255 255
0.0054802299 0.013237543 0.028206587 255 255 255
0.0041128397 0.013557792 0.027429998 255 255 255
0.0027466416 0.013877526 0.026656985 255 255 255
0.0024117231 0.014011785 0.02573359 255 255 255
0.0010475516 0.014330789 0.024965763 255 255 255
0.00071322918 0.014464796 0.024044037 255 255 255
0.00037890673 0.014598802 0.02312237 255 255 255
4.4643879e-05 0.014732808 0.022200704 255 255 255
-0.0013164282 0.015050523 0.021441579 255 255 255
-0.001650095 0.015184276 0.020521641 255 255 255
-0.00095826387 0.015134826 0.019435644 255 255 255
-0.0012925267 0.015268832 0.018513918 255 255 255
-0.0016268492 0.015402846 0.017592251 255 255 255
-0.0019611716 0.015536845 0.016670585 255 255 255
-0.0022954345 0.015670858 0.015748858 255 255 255
-0.0026297569 0.015804864 0.014827192 255 255 255
-0.0029640794 0.015938871 0.013905525 255 255 255
-0.0032983422 0.016072877 0.012983799 255 255 255
-0.0036326647 0.016206883 0.012062132 255 255 255
-0.0039669275 0.016340889 0.011140406 255 255 255
-0.00430125 0.016474895 0.01021874 255 255 255
-0.0046355128 0.016608901 0.0092970729 255 255 255
-0.0049698353 0.016742907 0.0083754063 255 255 255
-0.0053041577 0.016876914 0.00745368 255 255 255
-0.0056384206 0.01701092 0.0065320134 255 255 255
-0.005972743 0.017144926 0.0056102872 255 255 255
-0.0063070655 0.017278932 0.0046886206 255 255 255
-0.0056265593 0.017234027 0.0035712719 255 255 255
-0.0059614778 0.017368287 0.0026478171 255 255 255
-0.0073099136 0.017680958 0.0019235611 255 255 255
-0.0076442361 0.017814964 0.0010018945 255 255 255
-0.0079784989 0.01794897 8.0168247e-05 255 255 255
-0.010336041 0.01843822 -0.00043267012 255 255 255
-0.010669053 0.01857172 -0.0013508797 255 255 255
-0.011002123 0.018705219 -0.0022690892 255 255 255
-0.0093157291 0.018484995 -0.0036065578 255 255 255
-0.009649992 0.018619001 -0.0045282245 255 255 255
-0.0089758635 0.018576629 -0.0056630373 255 255 255
-0.009310782 0.018710889 -0.0065864325 255 255 255
-0.0096457601 0.018845148 -0.0075098872 255 255 255
-0.0099806786 0.018979408 -0.0084332824 255 255 255
-0.010315597 0.019113667 -0.0093567371 255 255 255
-0.010650516 0.019247927 -0.010280192 255 255 255
-0.01199013 0.019557044 -0.01098007 255 255 255
-0.012324393 0.01969105 -0.011901736 255 255 255
-0.0086451173 0.019127697 -0.013731658 255 255 255
-0.0079791546 0.019088648 -0.014889061 255 255 255
-0.0073144436 0.019050069 -0.016050041 255 255 255
-0.0076525211 0.019185595 -0.016982138 255 255 255
-0.0059888959 0.01897449 -0.01838237 255 255 255
-0.0073284507 0.019283615 -0.019082248 255 255 255
-0.0076671839 0.019419394 -0.020016134 255 255 255
-0.0070069432 0.019382589 -0.021189213 255 255 255
-0.0073463321 0.019518621 -0.022124827 255 255 255
-0.0066879392 0.019482598 -0.023303211 255 255 255
-0.0070279241 0.019618891 -0.024240553 255 255 255
-0.0053750277 0.019412085 -0.025670409 255 255 255
-0.0027288198 0.019034989 -0.027355134 255 255 255
-0.0020768046 0.019001484 -0.028550923 255 255 255
-0.0024205446 0.01913929 -0.029498756 255 255 255
-0.0027643442 0.019277096 -0.030446589 255 255 255
