ply
format ascii 1.0
comment PCL generated
element vertex 988
property float x
property float y
property float z
property uchar red
property uchar green
property uchar blue
element camera 0
property float view_px
property float view_py
property float view_pz
property float x_axisx
property float x_axisy
property float x_axisz
property float y_axisx
property float y_axisy
property float y_axisz
property float z_axisx
property float z_axisy
property float z_axisz
property float focal
property float scalex
property float scaley
property float centerx
property float centery
property int viewportx
property int viewporty
property float k1
property float k2
end_header
-0.024322033 0.010112867 -0.027294636 255 255 255
-0.024767995 0.010203242 -0.028578162 255 255 255
-0.023390472 0.0099076331 -0.030594826 255 255 255
-0.022926629 0.0098053962 -0.032250166 255 255 255
-0.023374438 0.0098961443 -0.033538997 255 255 255
-0.022002459 0.0096016824 -0.035571456 255 255 255
-0.02245152 0.0096926689 -0.036863804 255 255 255
-0.027984917 0.0095463842 -0.012943327 255 255 255
-0.028425992 0.0096357763 -0.014212728 255 255 255
-0.027033508 0.0093333274 -0.016183496 255 255 255
-0.027475834 0.0094229579 -0.017456412 255 255 255
-0.027002633 0.0093169212 -0.01908356 255 255 255
-0.025615573 0.0090155602 -0.021070182 255 255 255
-0.024231076 0.0087147355 -0.023063838 255 255 255
-0.024676442 0.0088049769 -0.024345636 255 255 255
-0.024208724 0.0087000579 -0.025988579 255 255 255
-0.024654686 0.0087904334 -0.027272105 255 255 255
-0.025100708 0.0088808089 -0.028555632 255 255 255
-0.023724079 0.0085815638 -0.030572295 255 255 255
-0.024171293 0.0086721927 -0.031859279 255 255 255
-0.023708463 0.008568272 -0.033516407 255 255 255
-0.022337437 0.0082701743 -0.035548866 255 255 255
-0.022786498 0.0083611608 -0.036841214 255 255 255
-0.028313935 0.0082384944 -0.012921095 255 255 255
-0.028755009 0.0083278716 -0.014190555 255 255 255
-0.027363479 0.0080217868 -0.016161203 255 255 255
-0.027805746 0.0081114173 -0.01743412 255 255 255
-0.027333021 0.0080035776 -0.019061208 255 255 255
-0.025946915 0.0076985806 -0.021047831 255 255 255
-0.024563253 0.0073941201 -0.023041368 255 255 255
-0.025008678 0.0074843764 -0.024323165 255 255 255
-0.024541378 0.0073776394 -0.025966108 255 255 255
-0.0249874 0.007468015 -0.027249694 255 255 255
-0.025433362 0.0075583905 -0.02853322 255 255 255
-0.024057686 0.0072555095 -0.030549705 255 255 255
-0.0245049 0.0073461384 -0.031836748 255 255 255
-0.024952114 0.0074367523 -0.033123851 255 255 255
-0.022672415 0.0069386512 -0.035526216 255 255 255
-0.023121476 0.0070296526 -0.036818564 255 255 255
-0.028642952 0.0069305897 -0.012898862 255 255 255
-0.029084086 0.0070199817 -0.014168262 255 255 255
-0.027693391 0.0067102611 -0.016138911 255 255 255
-0.028135717 0.0067998916 -0.017411828 255 255 255
-0.02766341 0.006690219 -0.019038916 255 255 255
-0.024450123 0.0059832484 -0.021737158 255 255 255
-0.024895489 0.0060735047 -0.023018956 255 255 255
-0.025340855 0.006163761 -0.024300694 255 255 255
-0.025786221 0.0062540025 -0.025582433 255 255 255
-0.025320053 0.0061455816 -0.027227163 255 255 255
-0.025766075 0.0062359571 -0.02851069 255 255 255
-0.026212037 0.0063263327 -0.029794216 255 255 255
-0.026657999 0.0064167082 -0.031077743 255 255 255
-0.025285661 0.006110698 -0.03310132 255 255 255
-0.023007393 0.005607143 -0.035503566 255 255 255
-0.023456395 0.0056981444 -0.036795914 255 255 255
-0.02897197 0.0056226999 -0.01287663 255 255 255
-0.029413104 0.005712077 -0.01414609 255 255 255
-0.028023362 0.0053987354 -0.016116619 255 255 255
-0.028465629 0.0054883659 -0.017389536 255 255 255
-0.027993798 0.0053768754 -0.019016623 255 255 255
-0.02660948 0.0050646216 -0.021003008 255 255 255
-0.025227726 0.0047528893 -0.022996485 255 255 255
-0.025673091 0.0048431456 -0.024278283 255 255 255
-0.026118457 0.0049334019 -0.025560021 255 255 255
-0.025652766 0.0048231483 -0.027204692 255 255 255
-0.026098728 0.0049135238 -0.028488219 255 255 255
-0.02654475 0.0050038993 -0.029771745 255 255 255
-0.026990712 0.0050942749 -0.031055272 255 255 255
-0.025619268 0.0047846287 -0.03307873 255 255 255
-0.023342311 0.0042756349 -0.035480976 255 255 255
-0.023791373 0.0043666363 -0.036773324 255 255 255
-0.029301047 0.0043147951 -0.012854397 255 255 255
-0.027910948 0.0039975792 -0.014821351 255 255 255
-0.028353274 0.0040872097 -0.016094327 255 255 255
-0.0287956 0.0041768402 -0.017367244 255 255 255
-0.028324187 0.0040635318 -0.018994272 255 255 255
-0.026940823 0.003747642 -0.020980597 255 255 255
-0.025559962 0.0034322739 -0.022974014 255 255 255
-0.026005328 0.0035225302 -0.024255812 255 255 255
-0.026450694 0.0036127865 -0.02553761 255 255 255
-0.02598542 0.0035007298 -0.027182221 255 255 255
-0.026431441 0.0035911053 -0.028465748 255 255 255
-0.026877403 0.0036814809 -0.029749274 255 255 255
-0.025505662 0.0033679456 -0.031769156 255 255 255
-0.02504468 0.0032567531 -0.033426106 255 255 255
-0.023677289 0.0029441118 -0.035458326 255 255 255
-0.024126351 0.0030351132 -0.036750674 255 255 255
-0.029630065 0.0030069053 -0.012832165 255 255 255
-0.028240919 0.0026860386 -0.014799058 255 255 255
-0.028683186 0.0027756691 -0.016072035 255 255 255
-0.029125512 0.0028653145 -0.017344952 255 255 255
-0.028654575 0.0027501881 -0.01897192 255 255 255
-0.027272105 0.0024306625 -0.020958245 255 255 255
-0.025892198 0.0021116734 -0.022951603 255 255 255
-0.026337564 0.0022019148 -0.024233341 255 255 255
-0.02678293 0.0022921711 -0.025515139 255 255 255
-0.026318133 0.0021782964 -0.027159691 255 255 255
-0.026764095 0.002268672 -0.028443217 255 255 255
-0.027210057 0.0023590475 -0.029726803 255 255 255
-0.024930894 0.0018381327 -0.032114744 255 255 255
-0.023563206 0.0015216172 -0.034143329 255 255 255
-0.024012268 0.0016126037 -0.035435677 255 255 255
-0.023554742 0.0015002042 -0.037101448 255 255 255
-0.027686238 0.0011952519 -0.012230873 255 255 255
-0.028128505 0.0012848824 -0.01350379 255 255 255
-0.027656198 0.0011675805 -0.015125453 255 255 255
-0.02809912 0.0012573302 -0.016400218 255 255 255
-0.028542042 0.0013470948 -0.017674923 255 255 255
-0.027159274 0.00102368 -0.019657612 255 255 255
-0.025779009 0.00070080161 -0.021647334 255 255 255
-0.025312841 0.00058473647 -0.0232867 255 255 255
-0.025758803 0.00067511201 -0.024570227 255 255 255
-0.026204824 0.00076548755 -0.025853753 255 255 255
-0.024831235 0.0004439503 -0.027862906 255 255 255
-0.025278449 0.00053456426 -0.02914995 255 255 255
-0.025725663 0.00062519312 -0.030436993 255 255 255
-0.023449123 9.9107623e-05 -0.032828331 255 255 255
-0.022990823 -1.5363097e-05 -0.034490585 255 255 255
-0.021627128 -0.0003349036 -0.036527932 255 255 255
-0.02801615 -0.00011627376 -0.012208581 255 255 255
-0.028458476 -2.6643276e-05 -0.013481498 255 255 255
-0.027986586 -0.00014576316 -0.015103102 255 255 255
-0.028429508 -5.6013465e-05 -0.016377866 255 255 255
-0.027046442 -0.00038330257 -0.018356979 255 255 255
-0.027490616 -0.00029329956 -0.019635201 255 255 255
-0.025199533 -0.00082807243 -0.021980643 255 255 255
-0.025645494 -0.00073769689 -0.02326417 255 255 255
-0.024270415 -0.0010633618 -0.02526623 255 255 255
-0.024717629 -0.0009727329 -0.026553273 255 255 255
-0.025164843 -0.00088211894 -0.027840376 255 255 255
-0.025611997 -0.00079149008 -0.029127359 255 255 255
-0.02605921 -0.00070086122 -0.030414462 255 255 255
-0.023784101 -0.0012324005 -0.032805681 255 255 255
-0.023326278 -0.0013486892 -0.034467936 255 255 255
-0.021963477 -0.0016718656 -0.036505222 255 255 255
-0.022414327 -0.0015804917 -0.037802815 255 255 255
-0.028346121 -0.0014278144 -0.012186289 255 255 255
-0.028788388 -0.0013381839 -0.013459206 255 255 255
-0.028317034 -0.0014591217 -0.01508081 255 255 255
-0.02693361 -0.0017902851 -0.017056346 255 255 255
-0.027377784 -0.0017002821 -0.018334627 255 255 255
-0.025998116 -0.0020306706 -0.020320714 255 255 255
-0.025532186 -0.0021504909 -0.021958172 255 255 255
-0.025978208 -0.0020601153 -0.023241699 255 255 255
-0.024603963 -0.002389431 -0.0252437 255 255 255
-0.025051177 -0.0022988021 -0.026530743 255 255 255
-0.02549839 -0.0022081733 -0.027817786 255 255 255
-0.025945604 -0.0021175444 -0.029104829 255 255 255
-0.023670018 -0.0026549101 -0.031490743 255 255 255
-0.024119079 -0.0025639236 -0.032783091 255 255 255
-0.023661673 -0.0026820153 -0.034445226 255 255 255
-0.022299767 -0.0030088276 -0.036482453 255 255 255
-0.022750676 -0.0029174536 -0.037780106 255 255 255
-0.028676033 -0.0027393401 -0.012163997 255 255 255
-0.028204501 -0.002862215 -0.013783813 255 255 255
-0.028647423 -0.0027724653 -0.015058517 255 255 255
-0.027264893 -0.0031072646 -0.017033935 255 255 255
-0.027709067 -0.0030172616 -0.018312216 255 255 255
-0.026330352 -0.0033512861 -0.020298243 255 255 255
-0.025864899 -0.0034729242 -0.021935701 255 255 255
-0.026310861 -0.0033825487 -0.023219228 255 255 255
-0.02493757 -0.0037154853 -0.025221109 255 255 255
-0.025384784 -0.0036248565 -0.026508212 255 255 255
-0.024923623 -0.0037456304 -0.028157949 255 255 255
-0.025371492 -0.0036548823 -0.029446781 255 255 255
-0.024004996 -0.0039864182 -0.031468093 255 255 255
-0.024453998 -0.0038954318 -0.032760441 255 255 255
-0.023997128 -0.0040153414 -0.034422576 255 255 255
-0.022636116 -0.0043457896 -0.036459744 255 255 255
-0.023087025 -0.0042544156 -0.037757397 255 255 255
-0.028091967 -0.0042653233 -0.012486696 255 255 255
-0.028534889 -0.0041755587 -0.013761461 255 255 255
-0.028977811 -0.004085809 -0.015036166 255 255 255
-0.027596235 -0.0044242442 -0.017011583 255 255 255
-0.026217163 -0.0047621429 -0.018994033 255 255 255
-0.026662529 -0.0046719015 -0.020275831 255 255 255
-0.026197553 -0.0047953576 -0.021913171 255 255 255
-0.026643574 -0.004704982 -0.023196697 255 255 255
-0.025271177 -0.0050415546 -0.025198579 255 255 255
-0.025718391 -0.0049509257 -0.026485682 255 255 255
-0.025257707 -0.0050735176 -0.028135419 255 255 255
-0.025705516 -0.0049827695 -0.029424191 255 255 255
-0.023433208 -0.0055309087 -0.031811714 255 255 255
-0.022070706 -0.0058654845 -0.033841729 255 255 255
-0.022521555 -0.0057741106 -0.035139382 255 255 255
-0.022972465 -0.0056827515 -0.036437035 255 255 255
-0.028422356 -0.0055786669 -0.012464404 255 255 255
-0.028865278 -0.0054889172 -0.013739109 255 255 255
-0.027483404 -0.0058312267 -0.01571095 255 255 255
-0.026104033 -0.0061730146 -0.017689824 255 255 255
-0.025638282 -0.006298542 -0.019323707 255 255 255
-0.026084244 -0.0062081516 -0.020607233 255 255 255
-0.024710357 -0.0065488517 -0.022601962 255 255 255
-0.025157571 -0.0064582378 -0.023889005 255 255 255
-0.025604784 -0.0063676089 -0.025176048 255 255 255
-0.026051998 -0.00627698 -0.026463151 255 255 255
-0.023776829 -0.0068314373 -0.028838158 255 255 255
-0.023318946 -0.0069553554 -0.030494928 255 255 255
-0.021956146 -0.0072938204 -0.032521367 255 255 255
-0.020595789 -0.0076317489 -0.034554899 255 255 255
-0.020142853 -0.0077546835 -0.036225796 255 255 255
-0.026926398 -0.0073282123 -0.013132095 255 255 255
-0.027370572 -0.0072382092 -0.014410317 255 255 255
-0.025990903 -0.0075838864 -0.016385615 255 255 255
-0.025524974 -0.007711336 -0.01801765 255 255 255
-0.025970936 -0.0076209605 -0.019301176 255 255 255
-0.024596751 -0.0079655498 -0.021292329 255 255 255
-0.025043964 -0.007874921 -0.022579432 255 255 255
-0.025491178 -0.0077842921 -0.023866475 255 255 255
-0.025030136 -0.0079107583 -0.025512576 255 255 255
-0.023662746 -0.0082539469 -0.02752316 255 255 255
-0.023204744 -0.008379817 -0.029178143 255 255 255
-0.021841586 -0.0087221414 -0.031201005 255 255 255
-0.020480931 -0.0090639591 -0.03323096 255 255 255
-0.020027816 -0.0091888309 -0.034900069 255 255 255
-0.018671393 -0.0095297992 -0.036942363 255 255 255
-0.026813567 -0.0087351948 -0.011831462 255 255 255
-0.02725774 -0.0086451918 -0.013109684 255 255 255
-0.025877714 -0.0089947432 -0.015081406 255 255 255
-0.02632308 -0.0089044869 -0.016363144 255 255 255
-0.025857627 -0.0090337694 -0.017995179 255 255 255
-0.026303649 -0.0089433938 -0.019278705 255 255 255
-0.024930358 -0.0092916042 -0.021269798 255 255 255
-0.025377512 -0.0092009902 -0.022556901 255 255 255
-0.02491641 -0.0093293935 -0.024201214 255 255 255
-0.023548663 -0.0096764565 -0.026208162 255 255 255
-0.023090482 -0.0098042637 -0.027861357 255 255 255
-0.021727026 -0.010150477 -0.029880643 255 255 255
-0.022177935 -0.010059103 -0.031178296 255 255 255
-0.020818174 -0.010404557 -0.033208132 255 255 255
-0.020365536 -0.010531247 -0.034877241 255 255 255
-0.019010007 -0.010875851 -0.036919475 255 255 255
-0.027589023 -0.0099621713 -0.013087273 255 255 255
-0.02620995 -0.010315359 -0.015058935 255 255 255
-0.025744379 -0.010446578 -0.016689181 255 255 255
-0.026190341 -0.010356203 -0.017972708 255 255 255
-0.024816692 -0.010708287 -0.019960165 255 255 255
-0.025263906 -0.010617673 -0.021247268 255 255 255
-0.024802625 -0.010748014 -0.022889853 255 255 255
-0.023434579 -0.011098966 -0.024893165 255 255 255
-0.022976279 -0.01122871 -0.026544571 255 255 255
-0.021612465 -0.011578813 -0.028560281 255 255 255
-0.022063375 -0.011487439 -0.029857934 255 255 255
-0.020703316 -0.011836767 -0.031884193 255 255 255
-0.020250499 -0.011965394 -0.033551514 255 255 255
-0.020703197 -0.011873662 -0.034854412 255 255 255
-0.019348621 -0.012221888 -0.036896586 255 255 255
-0.026096821 -0.011726215 -0.013754725 255 255 255
-0.02563107 -0.011859372 -0.015383124 255 255 255
-0.024255872 -0.012215599 -0.017363548 255 255 255
-0.024703085 -0.012124985 -0.018650591 255 255 255
-0.02424103 -0.012257397 -0.02028966 255 255 255
-0.022871435 -0.012612477 -0.022285879 255 255 255
-0.02241236 -0.012744278 -0.023933709 255 255 255
-0.022862017 -0.012653157 -0.025227785 255 255 255
-0.021497965 -0.013007134 -0.027239919 255 255 255
-0.021948814 -0.012915775 -0.028537571 255 255 255
-0.020588458 -0.013268992 -0.030560255 255 255 255
-0.020135462 -0.013399556 -0.032225728 255 255 255
-0.020588219 -0.01330781 -0.033528686 255 255 255
-0.019233346 -0.013659924 -0.035567284 255 255 255
-0.018784046 -0.013789728 -0.037243247 255 255 255
-0.025983632 -0.013137087 -0.012450516 255 255 255
-0.025517762 -0.013272181 -0.014077127 255 255 255
-0.024142265 -0.013632298 -0.016053915 255 255 255
-0.023679435 -0.013766766 -0.017689407 255 255 255
-0.024127245 -0.013676018 -0.018978238 255 255 255
-0.022757351 -0.014034986 -0.020970881 255 255 255
-0.022298098 -0.014168724 -0.022616923 255 255 255
-0.020932496 -0.014526844 -0.024621964 255 255 255
-0.021383405 -0.01443547 -0.025919557 255 255 255
-0.021834254 -0.014344096 -0.027217209 255 255 255
-0.019567728 -0.01492545 -0.029597104 255 255 255
-0.018210113 -0.015281945 -0.031625032 255 255 255
-0.018664062 -0.015189946 -0.032931447 255 255 255
-0.019118011 -0.015097961 -0.034237921 255 255 255
-0.018668592 -0.015229702 -0.035912156 255 255 255
-0.019123137 -0.015137598 -0.037220359 255 255 255
-0.026315868 -0.014457703 -0.012428045 255 255 255
-0.025850415 -0.014594615 -0.014054656 255 255 255
-0.024475873 -0.014958352 -0.016031384 255 255 255
-0.02401346 -0.015094653 -0.017666817 255 255 255
-0.022643268 -0.015457496 -0.019655943 255 255 255
-0.022183895 -0.015593186 -0.021300197 255 255 255
-0.022633553 -0.015502065 -0.022594273 255 255 255
-0.021268845 -0.015863791 -0.024599195 255 255 255
-0.021719754 -0.015772432 -0.025896847 255 255 255
-0.022170603 -0.015681058 -0.0271945 255 255 255
-0.019905448 -0.016267851 -0.029574275 255 255 255
-0.018548727 -0.016627982 -0.031602144 255 255 255
-0.019002676 -0.016535997 -0.032908559 255 255 255
-0.018553078 -0.016669676 -0.034581065 255 255 255
-0.019007623 -0.016577572 -0.035889268 255 255 255
-0.025737107 -0.016007423 -0.012748659 255 255 255
-0.024362266 -0.016375035 -0.014721811 255 255 255
-0.023899674 -0.016513273 -0.016355395 255 255 255
-0.022529185 -0.016880006 -0.018340945 255 255 255
-0.022069633 -0.017017633 -0.019983411 255 255 255
-0.020703435 -0.017383501 -0.021981239 255 255 255
-0.021154284 -0.017292127 -0.023278832 255 255 255
-0.019791722 -0.017657235 -0.025287271 255 255 255
-0.020243824 -0.017565623 -0.02658844 255 255 255
-0.017979443 -0.018158004 -0.028966367 255 255 255
-0.017528474 -0.018293887 -0.03063345 255 255 255
-0.017983019 -0.018201768 -0.031941652 255 255 255
-0.016630292 -0.01856491 -0.033978343 255 255 255
-0.017086089 -0.018472537 -0.035290062 255 255 255
-0.015736997 -0.018834934 -0.037337303 255 255 255
-0.02424866 -0.017791733 -0.013412237 255 255 255
-0.02196604 -0.018393502 -0.0157336 255 255 255
-0.022415102 -0.0183025 -0.017025948 255 255 255
-0.021955371 -0.018442079 -0.018666625 255 255 255
-0.020588875 -0.018811822 -0.020660877 255 255 255
-0.021039724 -0.018720463 -0.02195847 255 255 255
-0.019676864 -0.019089445 -0.023963332 255 255 255
-0.017410159 -0.019688025 -0.02633059 255 255 255
-0.016958416 -0.019825965 -0.027994156 255 255 255
-0.017412961 -0.019733861 -0.029302359 255 255 255
-0.017867565 -0.019641742 -0.030610561 255 255 255
-0.01470685 -0.020467892 -0.033368468 255 255 255
-0.015163839 -0.020375282 -0.034683704 255 255 255
-0.015620887 -0.020282671 -0.03599894 255 255 255
-0.015175879 -0.020419255 -0.037681937 255 255 255
-0.021402895 -0.019907013 -0.013126254 255 255 255
-0.020941854 -0.020048767 -0.014761627 255 255 255
-0.021391511 -0.019957647 -0.016055703 255 255 255
-0.020023406 -0.020331532 -0.018042862 255 255 255
-0.018657804 -0.020704895 -0.020037055 255 255 255
-0.019109905 -0.020613283 -0.021338224 255 255 255
-0.019562006 -0.020521656 -0.022639394 255 255 255
-0.017294824 -0.021126062 -0.025001228 255 255 255
-0.016842961 -0.021265939 -0.026663005 255 255 255
-0.017297506 -0.021173835 -0.027971268 255 255 255
-0.017752051 -0.021081716 -0.02927947 255 255 255
-0.018206656 -0.020989597 -0.030587673 255 255 255
-0.016854465 -0.021360248 -0.032620668 255 255 255
-0.017310262 -0.021267891 -0.033932388 255 255 255
-0.017766058 -0.021175534 -0.035244107 255 255 255
-0.016418815 -0.021545187 -0.037291169 255 255 255
-0.020377934 -0.021564335 -0.012150764 255 255 255
-0.019007087 -0.021942601 -0.014127254 255 255 255
-0.019457996 -0.021851227 -0.015424848 255 255 255
-0.019908845 -0.021759853 -0.0167225 255 255 255
-0.018542945 -0.022137105 -0.018713117 255 255 255
-0.018995047 -0.022045493 -0.020014286 255 255 255
-0.019447148 -0.021953866 -0.021315396 255 255 255
-0.019899249 -0.021862254 -0.022616565 255 255 255
-0.02035135 -0.021770641 -0.023917735 255 255 255
-0.017181993 -0.022613809 -0.026640058 255 255 255
-0.017636597 -0.02252169 -0.02794832 255 255 255
-0.018091142 -0.022429571 -0.029256523 255 255 255
-0.018545687 -0.022337466 -0.030564725 255 255 255
-0.01719445 -0.022711754 -0.032597661 255 255 255
-0.017650247 -0.022619382 -0.03390944 255 255 255
-0.018106043 -0.022527024 -0.0352211 255 255 255
-0.016759694 -0.022900313 -0.037268162 255 255 255
-0.018892527 -0.023370922 -0.012806892 255 255 255
-0.019343436 -0.023279563 -0.014104486 255 255 255
-0.017975926 -0.023660943 -0.016088009 255 255 255
-0.018428087 -0.023569316 -0.017389178 255 255 255
-0.018880188 -0.023477703 -0.018690288 255 255 255
-0.01933229 -0.023386091 -0.019991457 255 255 255
-0.019784391 -0.023294464 -0.021292627 255 255 255
-0.020236492 -0.023202851 -0.022593737 255 255 255
-0.020688653 -0.023111239 -0.023894906 255 255 255
-0.017521083 -0.023961663 -0.026617169 255 255 255
-0.017975688 -0.023869544 -0.027925372 255 255 255
-0.017078698 -0.024155602 -0.031262934 255 255 255
-0.017534435 -0.024063244 -0.032574654 255 255 255
-0.017990232 -0.023970872 -0.033886433 255 255 255
-0.018446028 -0.023878515 -0.035198152 255 255 255
-0.016199946 -0.024490073 -0.037612677 255 255 255
-0.019228876 -0.024707884 -0.012784123 255 255 255
-0.017861068 -0.025093153 -0.014764011 255 255 255
-0.018313229 -0.025001526 -0.01606518 255 255 255
-0.017857194 -0.025147989 -0.017711043 255 255 255
-0.018309891 -0.025056258 -0.019013941 255 255 255
-0.016948819 -0.025440156 -0.02101326 255 255 255
-0.019215345 -0.024872765 -0.021619797 255 255 255
-0.019668043 -0.024781033 -0.022922754 255 255 255
-0.019565225 -0.026044846 -0.012761414 255 255 255
-0.018198371 -0.026433736 -0.014741242 255 255 255
-0.017742157 -0.026582152 -0.016385317 255 255 255
-0.018194854 -0.026490405 -0.017688215 255 255 255
-0.016833544 -0.026878193 -0.019683897 255 255 255
-0.017287493 -0.026786208 -0.020990372 255 255 255
-0.017741442 -0.026694223 -0.022296786 255 255 255
-0.01762712 -0.028016299 -0.015059531 255 255 255
-0.018079877 -0.027924553 -0.016362429 255 255 255
-0.018532574 -0.027832821 -0.017665386 255 255 255
-0.017172158 -0.028224245 -0.019661009 255 255 255
-0.017626107 -0.028132245 -0.020967484 255 255 255
0.0057135224 -0.049009413 -0.020315766 255 255 255
0.005243659 -0.048914194 -0.021668077 255 255 255
0.0044577718 -0.050140366 -0.019956648 255 255 255
0.0039885044 -0.050045282 -0.02130717 255 255 255
0.0045769811 -0.051626921 -0.018582463 255 255 255
0.0041077137 -0.051531821 -0.019932985 255 255 255
0.0036384463 -0.051436722 -0.021283507 255 255 255
0.0024170876 -0.052486241 -0.017891586 255 255 255
0.0019490123 -0.052391395 -0.019238591 255 255 255
0.0032883883 -0.052828193 -0.021259904 255 255 255
0.0043461323 -0.054504931 -0.017184615 255 255 255
0.0020679235 -0.053874061 -0.017867982 255 255 255
0.0015999079 -0.053779215 -0.019214988 255 255 255
0.0029383302 -0.054219648 -0.021236181 255 255 255
0.0024691224 -0.054124549 -0.022586703 255 255 255
0.0039961338 -0.055896387 -0.017161012 255 255 255
0.0017188191 -0.055261895 -0.017844439 255 255 255
0.0012507439 -0.055167049 -0.019191384 255 255 255
0.0007827282 -0.055072203 -0.02053839 255 255 255
0.00031465292 -0.054977357 -0.021885395 255 255 255
0.0050538778 -0.057573125 -0.013085723 255 255 255
0.0045846105 -0.057478026 -0.014436245 255 255 255
0.0023057461 -0.056839406 -0.015126824 255 255 255
0.0018377304 -0.056744561 -0.01647377 255 255 255
0.0013696551 -0.056649715 -0.017820835 255 255 255
0.00090163946 -0.056554869 -0.019167781 255 255 255
0.00043356419 -0.056460023 -0.020514846 255 255 255
-3.4451485e-05 -0.056365177 -0.021861792 255 255 255
0.0047038198 -0.05896458 -0.013062119 255 255 255
0.0042345524 -0.058869481 -0.014412642 255 255 255
0.0019566417 -0.058227226 -0.015103221 255 255 255
0.0014885664 -0.05813238 -0.016450167 255 255 255
0.0010205507 -0.058037534 -0.017797232 255 255 255
0.00055247545 -0.057942688 -0.019144177 255 255 255
8.4459782e-05 -0.057847843 -0.020491242 255 255 255
0.0025435686 -0.059804738 -0.012385607 255 255 255
0.0038844943 -0.060260937 -0.014388919 255 255 255
0.0034152269 -0.060165852 -0.015739441 255 255 255
0.001139462 -0.0595202 -0.016426623 255 255 255
0.00067138672 -0.059425354 -0.017773628 255 255 255
-0.00026464462 -0.059235662 -0.020467639 255 255 255
-0.0007327199 -0.059140831 -0.021814585 255 255 255
0.0021944046 -0.061192572 -0.012362003 255 255 255
0.0017263889 -0.061097711 -0.013709009 255 255 255
0.0030651689 -0.061557308 -0.015715837 255 255 255
0.00079029799 -0.060908034 -0.016403019 255 255 255
0.00032228231 -0.060813189 -0.017750025 255 255 255
0.0018453002 -0.062580392 -0.0123384 255 255 255
0.0013772845 -0.062485546 -0.013685465 255 255 255
0.00090920925 -0.0623907 -0.015032411 255 255 255
0.002245903 -0.062853664 -0.017042696 255 255 255
0.0017766356 -0.062758565 -0.018393219 255 255 255
-0.00077807903 -0.063311443 -0.013005674 255 255 255
-0.0012449026 -0.063216835 -0.014349163 255 255 255
0.0046015382 -0.065087289 -0.018013835 255 255 255
0.0014265776 -0.064150035 -0.018369555 255 255 255
-0.001126349 -0.064695626 -0.01298213 255 255 255
-0.0015931129 -0.064601034 -0.014325619 255 255 255
0.0042501092 -0.066484183 -0.017990112 255 255 255
-0.0014745593 -0.066079825 -0.012958646 255 255 255
-0.0019413829 -0.065985233 -0.014302135 255 255 255
0.017846286 0.036866844 0.027227938 0 255 0
0.017391741 0.036958948 0.025919735 0 255 0
0.016937196 0.037051067 0.024611533 0 255 0
-0.0023446083 0.040286914 0.020529687 0 255 0
-0.0016342998 0.040340453 0.0074533224 0 255 0
-0.0011405945 0.04027991 0.0058500767 0 255 0
-0.0015884042 0.040370658 0.0045612454 0 255 0
-0.00015687943 0.040159568 0.0026329756 0 255 0
-0.00060588121 0.040250555 0.0013406277 0 255 0
-0.00011646748 0.040190876 -0.00027495623 0 255 0
-0.00056612492 0.040281996 -0.0015690327 0 255 0
0.00085872412 0.040072247 -0.0035167336 0 255 0
0.00040781498 0.040163621 -0.0048143864 0 255 0
0.0018289685 0.039954647 -0.0067725778 0 255 0
0.0013768673 0.04004626 -0.0080737472 0 255 0
0.0018595457 0.039987937 -0.0097087622 0 255 0
0.0014068484 0.040079668 -0.01101172 0 255 0
0.02646625 0.033966616 0.031874955 0 255 0
0.025548518 0.034152582 0.029233813 0 255 0
0.022229671 0.034712359 0.028750718 0 255 0
0.019867241 0.035115913 0.027997255 0 255 0
0.017507195 0.035518974 0.027250886 0 255 0
0.01705265 0.035611093 0.025942624 0 255 0
0.016598105 0.035703197 0.024634421 0 255 0
-0.0041262507 0.039188653 0.022423863 0 255 0
-0.0045691729 0.039278403 0.021149158 0 255 0
-0.005012095 0.039368168 0.019874454 0 255 0
-0.0054550171 0.039457917 0.018599689 0 255 0
-0.0058979392 0.039547667 0.017324984 0 255 0
-0.0044525266 0.039329931 0.015439093 0 255 0
-0.0048967004 0.039419934 0.014160872 0 255 0
-0.0053408146 0.039509937 0.01288259 0 255 0
-0.0039004087 0.03929323 0.010982633 0 255 0
-0.0043457747 0.039383486 0.0097008348 0 255 0
-0.0038501024 0.039320633 0.008104682 0 255 0
-0.002415061 0.039105013 0.0061888099 0 255 0
-0.0019224882 0.039042786 0.0045838356 0 255 0
-0.0023702979 0.039133534 0.0032950044 0 255 0
-0.00094085932 0.038919047 0.0013632774 0 255 0
-0.0013899207 0.039010048 7.0929527e-05 0 255 0
-0.00090152025 0.03894867 -0.0015463829 0 255 0
0.00052237511 0.038735285 -0.0034940243 0 255 0
7.1465969e-05 0.038826659 -0.0047916174 0 255 0
-0.00037938356 0.038918033 -0.0060892701 0 255 0
-0.0008302927 0.039009392 -0.0073869228 0 255 0
0.00058752298 0.038797289 -0.009352088 0 255 0
0.00013536215 0.038888901 -0.010653257 0 255 0
0.026123941 0.03260605 0.031898081 0 255 0
0.025665104 0.032699034 0.03057754 0 255 0
0.025206268 0.032792017 0.02925694 0 255 0
0.021888733 0.033357218 0.028773725 0 255 0
0.019527197 0.033764422 0.028020203 0 255 0
0.01907146 0.033856779 0.026708484 0 255 0
0.018615663 0.033949152 0.025396705 0 255 0
0.018159866 0.034041509 0.024084985 0 255 0
-0.0044566393 0.037875295 0.022446156 0 255 0
-0.0048995614 0.037965059 0.021171451 0 255 0
-0.0053424835 0.038054809 0.019896746 0 255 0
-0.0057854056 0.038144574 0.018622041 0 255 0
-0.0062283278 0.038234323 0.017347336 0 255 0
-0.0047838688 0.038012967 0.015461445 0 255 0
-0.005227983 0.03810297 0.014183223 0 255 0
-0.0056721568 0.038192973 0.012905002 0 255 0
-0.0042325854 0.037972629 0.011005044 0 255 0
-0.0046779513 0.038062885 0.0097233057 0 255 0
-0.0041827559 0.037998199 0.0081271529 0 255 0
-0.0027486682 0.037778959 0.0062113404 0 255 0
-0.0022565126 0.037714899 0.0046063662 0 255 0
-0.0027043223 0.037805647 0.0033175945 0 255 0
-0.0012758374 0.037587538 0.0013859272 0 255 0
-0.0017248988 0.037678525 9.3579292e-05 0 255 0
-0.0012369752 0.037615344 -0.0015237331 0 255 0
0.0001860261 0.037398338 -0.0034712553 0 255 0
-0.0021362901 0.037797585 -0.0041119456 0 255 0
-0.0025859475 0.037888706 -0.0054060817 0 255 0
-0.0011666417 0.037672445 -0.0073641539 0 255 0
-0.0016174912 0.037763819 -0.0086618066 0 255 0
-0.0020684004 0.037855178 -0.0099594593 0 255 0
-0.0025193095 0.037946552 -0.011257052 0 255 0
0.028644443 0.030766651 0.031099796 0 255 0
0.025322795 0.031338453 0.030600667 0 255 0
0.024863958 0.031431437 0.029280066 0 255 0
0.022500277 0.031842873 0.028517723 0 255 0
0.022042632 0.031935602 0.027200699 0 255 0
0.020633817 0.032187328 0.02616626 0 255 0
0.020176828 0.032279938 0.024850965 0 255 0
0.019719779 0.032372549 0.023535728 0 255 0
0.028778195 0.030908406 0.016384244 0 255 0
-0.0047870278 0.036561951 0.022468507 0 255 0
-0.00522995 0.036651716 0.021193802 0 255 0
-0.0056728721 0.036741465 0.019919038 0 255 0
-0.0061157942 0.03683123 0.018644333 0 255 0
-0.0065587163 0.03692098 0.017369628 0 255 0
-0.0051151514 0.036695972 0.015483856 0 255 0
-0.0055593252 0.03678599 0.014205635 0 255 0
-0.0060034394 0.036875993 0.012927413 0 255 0
-0.0064476132 0.036965996 0.011649132 0 255 0
-0.0050101876 0.03674227 0.009745717 0 255 0
-0.0054555535 0.036832511 0.0084639788 0 255 0
-0.004961431 0.036766157 0.0068660975 0 255 0
-0.005407393 0.036856532 0.005582571 0 255 0
-0.0058534145 0.036946908 0.0042990446 0 255 0
-0.0034862161 0.036568508 0.0020513535 0 255 0
-0.0039340258 0.036659256 0.00076252222 0 255 0
-0.0025088787 0.036438018 -0.0011761189 0 255 0
-0.0029579401 0.036529019 -0.0024684668 0 255 0
-0.0034070015 0.036620021 -0.0037608147 0 255 0
-0.0038560629 0.036711007 -0.0050531626 0 255 0
-0.0033710003 0.0366465 -0.0066775084 0 255 0
-0.0038207173 0.036737621 -0.0079716444 0 255 0
-0.0042703748 0.036828741 -0.0092657208 0 255 0
-0.0047200322 0.036919862 -0.010559797 0 255 0
0.030670285 0.028984189 0.031904876 0 255 0
0.028300822 0.029400632 0.031123042 0 255 0
0.025933743 0.029816583 0.030348241 0 255 0
0.02547431 0.029909685 0.029025912 0 255 0
0.024062812 0.030163839 0.027982652 0 255 0
0.021701276 0.030578673 0.027223706 0 255 0
0.021243691 0.030671403 0.025906682 0 255 0
0.020786047 0.030764133 0.024589658 0 255 0
0.020328403 0.030856878 0.023272634 0 255 0
0.0265131 0.029826626 0.019940555 0 255 0
0.026051164 0.02992022 0.018611193 0 255 0
0.02843231 0.029533297 0.016407609 0 255 0
0.034597933 0.028506905 0.013020873 0 255 0
-0.0051174164 0.035248607 0.022490859 0 255 0
0.031303406 0.029110789 0.0095767975 0 255 0
-0.0060032606 0.035428122 0.01994139 0 255 0
-0.0064462423 0.035517871 0.018666685 0 255 0
-0.0068891644 0.035607636 0.01739198 0 255 0
-0.0073320866 0.035697386 0.016117275 0 255 0
-0.0077750087 0.035787135 0.01484251 0 255 0
-0.0082179308 0.0358769 0.013567805 0 255 0
-0.0067788959 0.035649016 0.011671543 0 255 0
-0.0072230697 0.03573902 0.010393262 0 255 0
-0.0076671839 0.035829023 0.0091150403 0 255 0
-0.0062331557 0.035602152 0.0072046518 0 255 0
-0.0066785216 0.035692409 0.0059229136 0 255 0
-0.0071239471 0.035782665 0.0046411157 0 255 0
-0.0066320896 0.03571485 0.0030379891 0 255 0
-0.0070780516 0.035805225 0.0017544627 0 255 0
-0.0075240135 0.035895601 0.0004709363 0 255 0
-0.0060991049 0.035670578 -0.0014659166 0 255 0
-0.0065463185 0.035761192 -0.0027529597 0 255 0
-0.0060594082 0.035694376 -0.0043702126 0 255 0
-0.0065072179 0.035785124 -0.0056589842 0 255 0
-0.0050891042 0.035561487 -0.0076152086 0 255 0
-0.0055381656 0.035652488 -0.0089075565 0 255 0
-0.005987227 0.03574349 -0.010199904 0 255 0
-0.0064362288 0.035834476 -0.011492252 0 255 0
0.03032577 0.027614534 0.031928182 0 255 0
0.027957141 0.028034613 0.031146288 0 255 0
0.027496457 0.028127968 0.029820442 0 255 0
0.027035773 0.028221324 0.028494596 0 255 0
0.024672091 0.028640404 0.027726769 0 255 0
0.024212599 0.028733507 0.02640444 0 255 0
0.023753166 0.028826624 0.025082111 0 255 0
0.023293674 0.028919727 0.023759842 0 255 0
0.024732351 0.028688103 0.021865368 0 255 0
0.026168525 0.028456971 0.019963861 0 255 0
0.025706589 0.028550565 0.018634439 0 255 0
0.028086364 0.028158188 0.016430974 0 255 0
0.034248829 0.02711907 0.013044477 0 255 0
0.033780813 0.027213916 0.011697471 0 255 0
-0.0063931942 0.034096882 0.022809803 0 255 0
-0.0068355203 0.034186512 0.021536827 0 255 0
-0.0072777867 0.034276143 0.02026391 0 255 0
-0.0077201128 0.034365773 0.018990934 0 255 0
-0.0081624389 0.034455404 0.017718017 0 255 0
-0.0086047649 0.034545034 0.016445041 0 255 0
-0.0090470314 0.034634665 0.015172124 0 255 0
-0.0094893575 0.034724295 0.013899148 0 255 0
-0.0099316835 0.034813926 0.012626171 0 255 0
-0.0094341636 0.034743056 0.011040747 0 255 0
-0.0098770857 0.03483282 0.0097659826 0 255 0
-0.010320008 0.03492257 0.0084912777 0 255 0
-0.01076293 0.03501232 0.0072165728 0 255 0
-0.011205852 0.035102084 0.0059418678 0 255 0
-0.0097751021 0.034872055 0.0040245056 0 255 0
-0.010219276 0.034962058 0.0027462244 0 255 0
-0.0087922812 0.034732804 0.00081825256 0 255 0
-0.0092376471 0.03482306 -0.00046348572 0 255 0
-0.0087487102 0.034753919 -0.0020736456 0 255 0
-0.0091946721 0.034844294 -0.003357172 0 255 0
-0.007774353 0.034616381 -0.0053045154 0 255 0
-0.0082215667 0.03470701 -0.0065915585 0 255 0
-0.0077369213 0.034638748 -0.0082140565 0 255 0
-0.008184731 0.034729496 -0.0095028877 0 255 0
-0.0086325407 0.034820244 -0.010791719 0 255 0
0.035213649 0.025324762 0.03192997 0 255 0
0.030934691 0.026079699 0.031679511 0 255 0
0.02951926 0.026338473 0.030622065 0 255 0
0.029057384 0.026432082 0.029292703 0 255 0
0.028595448 0.026525676 0.02796334 0 255 0
0.028133512 0.026619285 0.026633978 0 255 0
0.027671635 0.026712894 0.025304615 0 255 0
0.027209699 0.026806489 0.023975253 0 255 0
0.026747763 0.026900098 0.022645831 0 255 0
0.027234495 0.026829526 0.021030426 0 255 0
0.026771963 0.026923254 0.019699335 0 255 0
0.028204203 0.026689097 0.017789006 0 255 0
0.027740419 0.026783079 0.016454399 0 255 0
0.033899665 0.025731266 0.01306808 0 255 0
0.033431649 0.025826097 0.011721075 0 255 0
0.034853458 0.025594056 0.0097808838 0 255 0
-0.007165432 0.032874987 0.021559119 0 255 0
-0.007607758 0.032964617 0.020286202 0 255 0
-0.0099362135 0.033380374 0.019617081 0 255 0
-0.011319816 0.033632696 0.018651307 0 255 0
-0.011760235 0.033721954 0.017383695 0 255 0
-0.012200713 0.033811212 0.016116023 0 255 0
-0.014522493 0.034225613 0.015466273 0 255 0
-0.01496172 0.034314632 0.014202118 0 255 0
-0.013522148 0.034078985 0.012313008 0 255 0
-0.015840232 0.034492642 0.011673868 0 255 0
-0.016279459 0.034581661 0.010409713 0 255 0
-0.014843583 0.034346759 0.0085099936 0 255 0
-0.015284061 0.034436032 0.0072423816 0 255 0
-0.012915492 0.034040183 0.0050107837 0 255 0
-0.012422085 0.033968255 0.0034147501 0 255 0
-0.012865007 0.034058005 0.0021400452 0 255 0
-0.011438847 0.033825085 0.00021213293 0 255 0
-0.010015249 0.033592686 -0.0017228127 0 255 0
-0.010460615 0.033682942 -0.0030045509 0 255 0
-0.010905981 0.033773199 -0.0042863488 0 255 0
-0.011351347 0.03386344 -0.0055680871 0 255 0
-0.010865331 0.033793002 -0.0071852803 0 255 0
-0.011311293 0.033883378 -0.0084688067 0 255 0
-0.011757314 0.033973753 -0.0097523332 0 255 0
-0.012203276 0.034064129 -0.01103586 0 255 0
0.037240326 0.023517311 0.032754838 0 255 0
0.03486681 0.023946032 0.031953394 0 255 0
0.032495737 0.024374217 0.031159043 0 255 0
0.030127168 0.024801955 0.030371726 0 255 0
0.029664636 0.024895683 0.029040575 0 255 0
0.029202104 0.024989411 0.027709484 0 255 0
0.028739572 0.02508314 0.026378334 0 255 0
0.02827704 0.025176868 0.025047183 0 255 0
0.029713273 0.024938077 0.02315104 0 255 0
0.029249489 0.025032058 0.021816373 0 255 0
0.028785765 0.02512604 0.020481706 0 255 0
0.030217052 0.024888277 0.018571556 0 255 0
0.029752076 0.024982497 0.017233372 0 255 0
0.031179667 0.024745464 0.015312552 0 255 0
0.03355056 0.024343431 0.013091683 0 255 0
0.033082545 0.024438277 0.011744678 0 255 0
0.0345034 0.024202615 0.0098044872 0 255 0
0.034034133 0.024297699 0.0084539652 0 255 0
-0.0079376698 0.031653076 0.020308495 0 255 0
-0.010265231 0.03207247 0.019639254 0 255 0
-0.0135324 0.032656133 0.019280791 0 255 0
-0.013971627 0.032745153 0.018016696 0 255 0
-0.014410853 0.032834157 0.016752541 0 255 0
-0.015790343 0.033087552 0.015797317 0 255 0
-0.016228974 0.033176437 0.01453495 0 255 0
-0.015728593 0.033101186 0.012960136 0 255 0
-0.016167879 0.033190206 0.011695981 0 255 0
-0.016607106 0.03327921 0.010431886 0 255 0
-0.017046332 0.03336823 0.0091677308 0 255 0
-0.017485619 0.033457235 0.0079035759 0 255 0
-0.015117168 0.033055678 0.0056756139 0 255 0
-0.015558243 0.03314507 0.0044062138 0 255 0
-0.014129996 0.032907918 0.0024871826 0 255 0
-0.014572322 0.032997549 0.0012142062 0 255 0
-0.01408124 0.03292416 -0.00038707256 0 255 0
-0.014524162 0.033013925 -0.0016617775 0 255 0
-0.013102591 0.032778114 -0.0036001801 0 255 0
-0.013546765 0.032868117 -0.0048784018 0 255 0
-0.012128949 0.032633096 -0.006827414 0 255 0
-0.012574315 0.032723337 -0.0081092119 0 255 0
-0.013019681 0.032813594 -0.0093909502 0 255 0
-0.01253593 0.032741696 -0.011013389 0 255 0
0.034984946 0.022473067 0.033315003 0 255 0
0.03451997 0.022567287 0.031976819 0 255 0
0.034054995 0.022661507 0.030638635 0 255 0
0.033590019 0.022755727 0.029300451 0 255 0
0.033125043 0.022849947 0.027962267 0 255 0
0.032660067 0.022944182 0.026624084 0 255 0
0.032195091 0.023038402 0.0252859 0 255 0
0.031730115 0.023132622 0.023947716 0 255 0
0.03126514 0.023226857 0.022609532 0 255 0
0.032696724 0.02298519 0.020702958 0 255 0
0.032230496 0.023079664 0.019361198 0 255 0
0.031764328 0.023174137 0.018019497 0 255 0
0.031298101 0.02326861 0.016677797 0 255 0
0.033669472 0.022860765 0.014462233 0 255 0
0.033201456 0.022955611 0.013115287 0 255 0
0.032733381 0.023050457 0.011768281 0 255 0
0.034153342 0.022811145 0.0098281503 0 255 0
0.033684075 0.022906244 0.0084776282 0 255 0
0.033214808 0.023001343 0.0071271062 0 255 0
-0.010594249 0.03076458 0.019661546 0 255 0
-0.014801621 0.031520262 0.019606531 0 255 0
-0.015240252 0.031609148 0.018344164 0 255 0
-0.015678883 0.031698033 0.017081797 0 255 0
-0.016117513 0.031786919 0.01581943 0 255 0
-0.016556144 0.031875804 0.014557064 0 255 0
-0.016994774 0.031964689 0.013294697 0 255 0
-0.017433405 0.032053575 0.01203233 0 255 0
-0.017872036 0.03214246 0.010769963 0 255 0
-0.018310666 0.032231346 0.0095075369 0 255 0
-0.017813265 0.032154784 0.0079257488 0 255 0
-0.016381621 0.031913131 0.0060191154 0 255 0
-0.01588726 0.031837165 0.0044283867 0 255 0
-0.016328394 0.031926557 0.0031589866 0 255 0
-0.014902294 0.031686023 0.0012364984 0 255 0
-0.01534456 0.031775653 -3.6418438e-05 0 255 0
-0.015786886 0.031865284 -0.0013093948 0 255 0
-0.015297472 0.031790331 -0.0029141903 0 255 0
-0.015740395 0.031880096 -0.0041888952 0 255 0
-0.014322221 0.031641141 -0.0061342716 0 255 0
-0.014766395 0.031731144 -0.0074125528 0 255 0
-0.015210509 0.031821162 -0.0086907744 0 255 0
-0.015654683 0.031911165 -0.009968996 0 255 0
0.035103083 0.021000102 0.034676671 0 255 0
0.034638107 0.021094322 0.033338428 0 255 0
0.034173131 0.021188557 0.032000303 0 255 0
0.033708155 0.021282777 0.03066206 0 255 0
0.033243179 0.021376997 0.029323936 0 255 0
0.032778203 0.021471217 0.027985692 0 255 0
0.032313228 0.021565437 0.026647568 0 255 0
0.031848252 0.021659672 0.025309324 0 255 0
0.031383276 0.021753892 0.0239712 0 255 0
0.032815158 0.021508351 0.022068143 0 255 0
0.03234899 0.021602824 0.020726442 0 255 0
0.03283 0.021527663 0.019098759 0 255 0
0.032363176 0.021622255 0.01775527 0 255 0
0.031896412 0.021716863 0.016411781 0 255 0
0.033320308 0.021472931 0.014485836 0 255 0
0.034741819 0.021229506 0.012552857 0 255 0
0.034272552 0.021324605 0.011202335 0 255 0
0.033803284 0.021419704 0.0098518133 0 255 0
0.033334017 0.021514788 0.0085012913 0 255 0
0.032864749 0.021609887 0.0071507692 0 255 0
0.033337235 0.021536455 0.0054984093 0 255 0
-0.015128791 0.030219629 0.019628644 0 255 0
-0.015567422 0.030308515 0.018366277 0 255 0
-0.016006052 0.0303974 0.01710391 0 255 0
-0.016444743 0.030486286 0.015841544 0 255 0
-0.016883373 0.030575171 0.014579177 0 255 0
-0.017322004 0.030664057 0.01331681 0 255 0
-0.017760634 0.030752942 0.012054443 0 255 0
-0.018199265 0.030841827 0.010792017 0 255 0
-0.018637896 0.030930728 0.0095297098 0 255 0
-0.018140912 0.030852348 0.0079478621 0 255 0
-0.018580139 0.030941352 0.0066837072 0 255 0
-0.016216278 0.030529276 0.0044506788 0 255 0
-0.016657412 0.030618653 0.0031812191 0 255 0
-0.015232205 0.030374497 0.0012587905 0 255 0
-0.015674531 0.030464128 -1.4126301e-05 0 255 0
-0.016116858 0.030553758 -0.0012871027 0 255 0
-0.016559124 0.030643389 -0.0025600195 0 255 0
-0.016070783 0.030566737 -0.0041665435 0 255 0
-0.016513705 0.030656487 -0.0054412484 0 255 0
-0.016956627 0.030746251 -0.0067159534 0 255 0
-0.017399549 0.030836001 -0.0079907179 0 255 0
-0.017842472 0.030925766 -0.0092654228 0 255 0
-0.01643014 0.030684188 -0.011224866 0 255 0
0.034756243 0.019621357 0.034700096 0 255 0
0.034291267 0.019715577 0.033361912 0 255 0
0.033826292 0.019809812 0.032023728 0 255 0
0.035264611 0.019559145 0.03014189 0 255 0
0.034798443 0.019653618 0.028800189 0 255 0
0.032431364 0.020092472 0.028009176 0 255 0
0.031966329 0.020186692 0.026670933 0 255 0
0.03339982 0.019937038 0.024775028 0 255 0
0.032933593 0.020031512 0.023433328 0 255 0
0.033415437 0.019954264 0.02180922 0 255 0
0.034843385 0.019705743 0.019897461 0 255 0
0.03437531 0.019800574 0.018550456 0 255 0
0.033907294 0.019895434 0.01720345 0 255 0
0.035330296 0.019647866 0.015277565 0 255 0
0.034861088 0.019742966 0.013927042 0 255 0
0.035336137 0.019667089 0.012283564 0 255 0
0.034866273 0.019762307 0.010931253 0 255 0
0.03439641 0.019857526 0.0095789433 0 255 0
0.033926487 0.019952744 0.0082266331 0 255 0
0.033456624 0.020047963 0.0068743825 0 255 0
0.034869254 0.019802526 0.0049185157 0 255 0
-0.015456021 0.028918996 0.019650757 0 255 0
-0.015894651 0.029007882 0.018388391 0 255 0
-0.016333282 0.029096767 0.017126024 0 255 0
-0.018649518 0.029525325 0.01648134 0 255 0
-0.019086897 0.029613972 0.01522249 0 255 0
-0.019524336 0.029702604 0.01396364 0 255 0
-0.019961715 0.029791251 0.01270479 0 255 0
-0.018526435 0.029541194 0.01081419 0 255 0
-0.018965065 0.029630095 0.0095517635 0 255 0
-0.019403696 0.02971898 0.0082893968 0 255 0
-0.018907785 0.029638901 0.0067058802 0 255 0
-0.017479241 0.029390216 0.0047958493 0 255 0
-0.01698643 0.029310763 0.0032034516 0 255 0
-0.017427504 0.02940014 0.0019340515 0 255 0
-0.016004443 0.029152602 8.1658363e-06 0 255 0
-0.016446769 0.029242232 -0.0012648106 0 255 0
-0.016889095 0.029331863 -0.0025377274 0 255 0
-0.017331421 0.029421493 -0.0038107038 0 255 0
-0.016844153 0.029343143 -0.0054188967 0 255 0
-0.017287016 0.029432908 -0.0066936612 0 255 0
-0.017729998 0.029522657 -0.0079683661 0 255 0
-0.01817292 0.029612422 -0.0092430711 0 255 0
-0.018615842 0.029702172 -0.010517776 0 255 0
0.037268519 0.017718703 0.033924043 0 255 0
0.036801755 0.01781331 0.032580554 0 255 0
0.036334932 0.017907903 0.031237125 0 255 0
0.035868108 0.018002495 0.029893637 0 255 0
0.035401285 0.018097103 0.028550148 0 255 0
0.034934461 0.018191695 0.027206659 0 255 0
0.034467638 0.018286288 0.025863171 0 255 0
0.034000814 0.01838088 0.024519682 0 255 0
0.035430312 0.018128216 0.022615075 0 255 0
0.034962296 0.018223077 0.02126807 0 255 0
0.036388099 0.017971128 0.019352794 0 255 0
0.035918832 0.018066213 0.018002272 0 255 0
0.035449564 0.018161312 0.01665175 0 255 0
0.035925388 0.018083379 0.015011787 0 255 0
0.035455525 0.018178597 0.013659477 0 255 0
0.034985662 0.018273816 0.012307227 0 255 0
0.036402225 0.018023759 0.010365546 0 255 0
0.03593111 0.018119216 0.0090097189 0 255 0
0.035460055 0.018214688 0.007653892 0 255 0
0.03498894 0.018310159 0.0062980652 0 255 0
0.036399484 0.018061325 0.0043387413 0 255 0
0.038747668 0.017640963 0.0020688772 0 255 0
-0.016221821 0.027707249 0.018410504 0 255 0
-0.016660452 0.027796134 0.017148137 0 255 0
-0.018975794 0.028228328 0.016503394 0 255 0
-0.019413233 0.028316975 0.015244544 0 255 0
-0.019850612 0.028405607 0.013985693 0 255 0
-0.02028805 0.028494239 0.012726843 0 255 0
-0.020725429 0.028582886 0.011467993 0 255 0
-0.021162868 0.028671518 0.010209143 0 255 0
-0.019730926 0.028418347 0.0083115101 0 255 0
-0.020169556 0.028507233 0.0070491433 0 255 0
-0.019674718 0.02842547 0.0054638386 0 255 0
-0.01824832 0.028173402 0.0035504103 0 255 0
-0.017756522 0.02809225 0.001956284 0 255 0
-0.018197596 0.028181627 0.00068682432 0 255 0
-0.016776741 0.027930692 -0.0012425184 0 255 0
-0.017219007 0.028020322 -0.0025154352 0 255 0
-0.017661333 0.028109953 -0.0037884116 0 255 0
-0.018103659 0.028199583 -0.005061388 0 255 0
-0.018545926 0.028289214 -0.0063343048 0 255 0
-0.018988252 0.028378844 -0.0076072812 0 255 0
-0.019430578 0.02846849 -0.008880198 0 255 0
-0.01894623 0.028388828 -0.010495484 0 255 0
0.036920309 0.016334519 0.033947587 0 255 0
0.036453485 0.016429111 0.032604098 0 255 0
0.035986722 0.016523719 0.03126061 0 255 0
0.035519898 0.016618311 0.029917121 0 255 0
0.035053074 0.016712904 0.028573692 0 255 0
0.034586251 0.016807497 0.027230203 0 255 0
0.034119427 0.016902104 0.025886714 0 255 0
0.033652604 0.016996697 0.024543285 0 255 0
0.035081208 0.016740397 0.022638679 0 255 0
0.034613132 0.016835243 0.021291614 0 255 0
0.036038041 0.016579673 0.019376457 0 255 0
0.035568774 0.016674757 0.018025935 0 255 0
0.036044776 0.016594887 0.01638782 0 255 0
0.035574913 0.016690105 0.01503551 0 255 0
0.03510499 0.016785324 0.0136832 0 255 0
0.036521912 0.016531378 0.011745095 0 255 0
0.036050797 0.01662685 0.010389268 0 255 0
0.037464142 0.016373634 0.0084406137 0 255 0
0.038874924 0.016120926 0.0064848661 0 255 0
0.038401365 0.016216889 0.0051219463 0 255 0
0.037927806 0.016312853 0.0037591457 0 255 0
0.038393974 0.016234979 0.0020927787 0 255 0
0.037919819 0.016331062 0.00072813034 0 255 0
-0.018864691 0.026842698 0.017784297 0 255 0
-0.01930207 0.026931331 0.016525447 0 255 0
-0.019739509 0.027019978 0.015266597 0 255 0
-0.020176888 0.02710861 0.014007747 0 255 0
-0.020614326 0.027197242 0.012748897 0 255 0
-0.021051705 0.027285889 0.011490047 0 255 0
-0.021489143 0.027374521 0.010231197 0 255 0
-0.020058095 0.027117714 0.0083336234 0 255 0
-0.020496726 0.0272066 0.0070712566 0 255 0
-0.020002365 0.027123019 0.0054860115 0 255 0
-0.020441592 0.027212024 0.0042218566 0 255 0
-0.019017339 0.026956573 0.0023049116 0 255 0
-0.018526614 0.026873723 0.00070905685 0 255 0
-0.018967748 0.026963115 -0.00056034327 0 255 0
-0.019408822 0.027052492 -0.0018297434 0 255 0
-0.017991245 0.026798427 -0.0037661195 0 255 0
-0.018433571 0.026888058 -0.0050390959 0 255 0
-0.018875897 0.026977688 -0.0063120127 0 255 0
-0.019318223 0.027067319 -0.0075849295 0 255 0
-0.019760489 0.027156949 -0.0088579059 0 255 0
-0.020202816 0.02724658 -0.010130882 0 255 0
-0.019719541 0.027165234 -0.011747837 0 255 0
0.040380657 0.014237285 0.0329054 0 255 0
0.036105275 0.015044928 0.032627642 0 255 0
0.035638452 0.01513952 0.031284153 0 255 0
0.037072241 0.014878348 0.029397249 0 255 0
0.036604226 0.014973193 0.028050244 0 255 0
0.03613615 0.015068039 0.026703238 0 255 0
0.035668135 0.015162885 0.025356233 0 255 0
0.035200119 0.015257731 0.024009228 0 255 0
0.036626518 0.014998019 0.022101164 0 255 0
0.03615725 0.015093118 0.020750642 0 255 0
0.035687983 0.015188217 0.01940012 0 255 0
0.036164165 0.015106395 0.017763734 0 255 0
0.037583828 0.014848083 0.015836298 0 255 0
0.037112713 0.01494354 0.014480472 0 255 0
0.036641598 0.015039012 0.013124645 0 255 0
0.038056433 0.014781669 0.011183083 0 255 0
0.037584126 0.014877379 0.0098237395 0 255 0
0.038995266 0.014620781 0.0078715682 0 255 0
0.038521707 0.014716744 0.006508708 0 255 0
0.038048148 0.014812708 0.0051458478 0 255 0
0.038514435 0.014732897 0.0034812689 0 255 0
0.03804028 0.01482898 0.0021166801 0 255 0
0.039443493 0.014574006 0.00014162064 0 255 0
-0.019190967 0.025545701 0.017806292 0 255 0
-0.020565808 0.025809631 0.016856194 0 255 0
-0.02100265 0.025898144 0.015599132 0 255 0
-0.021439433 0.025986657 0.01434207 0 255 0
-0.020940602 0.025900245 0.012770951 0 255 0
-0.021377981 0.025988892 0.011512101 0 255 0
-0.021815419 0.026077524 0.010253251 0 255 0
-0.022252798 0.026166171 0.0089944005 0 255 0
-0.020823956 0.025905967 0.00709337 0 255 0
-0.021262586 0.025994852 0.0058310032 0 255 0
-0.020769238 0.025909573 0.0042440295 0 255 0
-0.019345939 0.025650501 0.0023271441 0 255 0
-0.019786358 0.025739759 0.0010594726 0 255 0
-0.019296765 0.02565521 -0.00053811073 0 255 0
-0.01973784 0.025744602 -0.0018075705 0 255 0
-0.020178914 0.025833979 -0.0030769706 0 255 0
-0.020619988 0.025923356 -0.0043463707 0 255 0
-0.021061063 0.026012748 -0.0056158304 0 255 0
-0.021502197 0.026102126 -0.0068852305 0 255 0
-0.021943271 0.026191518 -0.0081546307 0 255 0
-0.022384346 0.026280895 -0.0094240904 0 255 0
