ply
format ascii 1.0
comment PCL generated
element vertex 1035
property float x
property float y
property float z
property uchar red
property uchar green
property uchar blue
element camera 0
property float view_px
property float view_py
property float view_pz
property float x_axisx
property float x_axisy
property float x_axisz
property float y_axisx
property float y_axisy
property float y_axisz
property float z_axisx
property float z_axisy
property float z_axisz
property float focal
property float scalex
property float scaley
property float centerx
property float centery
property int viewportx
property int viewporty
property float k1
property float k2
end_header
0.60954642 -0.15214451 0.87687653 255 255 255
0.60648221 -0.15128207 0.87628353 255 255 255
0.60623997 -0.15122883 0.87506837 255 255 255
0.60505819 -0.1509061 0.87406611 255 255 255
0.60481632 -0.15085293 0.8728528 255 255 255
0.60457444 -0.15079977 0.87163943 255 255 255
0.60433257 -0.1507466 0.87042612 255 255 255
0.60315269 -0.15042427 0.86943299 255 255 255
0.60009795 -0.14956392 0.86888766 255 255 255
0.59985757 -0.14951107 0.86768162 255 255 255
0.60055417 -0.14972715 0.86624992 255 255 255
0.60031337 -0.14967422 0.86504209 255 255 255
0.60007262 -0.14962129 0.86383426 255 255 255
0.59983182 -0.14956838 0.86262643 255 255 255
0.59959108 -0.14951545 0.8614186 255 255 255
0.59935027 -0.14946252 0.86021078 255 255 255
0.59910953 -0.14940959 0.85900295 255 255 255
0.60073763 -0.14989339 0.85731798 255 255 255
0.60049617 -0.14984031 0.85610646 255 255 255
0.6011883 -0.15005542 0.85465276 255 255 255
0.60094643 -0.15000226 0.85343945 255 255 255
0.60070455 -0.14994909 0.85222614 255 255 255
0.60046268 -0.14989592 0.85101277 255 255 255
0.60115308 -0.15011062 0.84954989 255 255 255
0.60184276 -0.15032516 0.84808338 255 255 255
0.60160017 -0.15027185 0.84686637 255 255 255
0.60135752 -0.15021852 0.84564936 255 255 255
0.60297656 -0.1507003 0.84391856 255 255 255
0.60366356 -0.1509143 0.84243923 255 255 255
0.60714006 -0.1519303 0.84017456 255 255 255
0.60689491 -0.15187642 0.83894473 255 255 255
0.60664976 -0.15182252 0.83771491 255 255 255
0.6064046 -0.15176864 0.83648503 255 255 255
0.61472023 -0.1546845 0.89484775 255 255 255
0.6144762 -0.15463084 0.89362341 255 255 255
0.61423212 -0.1545772 0.89239907 255 255 255
0.61398804 -0.15452355 0.89117473 255 255 255
0.61374402 -0.15446989 0.88995039 255 255 255
0.61349994 -0.15441625 0.88872606 255 255 255
0.6123125 -0.15409037 0.88769257 255 255 255
0.61206883 -0.15403681 0.88647008 255 255 255
0.60805452 -0.15289491 0.88602573 255 255 255
0.60781229 -0.15284166 0.88481057 255 255 255
0.60757005 -0.15278842 0.88359541 255 255 255
0.60732782 -0.15273517 0.88238025 255 255 255
0.60708559 -0.15268192 0.88116509 255 255 255
0.60684335 -0.15262868 0.87994993 255 255 255
0.60660112 -0.15257542 0.87873471 255 255 255
0.6054188 -0.15225068 0.87772691 255 255 255
0.60517693 -0.15219751 0.8765136 255 255 255
0.60399574 -0.15187298 0.87551129 255 255 255
0.60375422 -0.15181988 0.87429976 255 255 255
0.60163546 -0.1512244 0.87351769 255 255 255
0.60139465 -0.15117149 0.87230986 255 255 255
0.60115391 -0.15111856 0.87110204 255 255 255
0.59997559 -0.15079467 0.87011433 255 255 255
0.5997352 -0.15074183 0.86890835 255 255 255
0.59949476 -0.15068898 0.86770236 255 255 255
0.59925437 -0.15063614 0.86649632 255 255 255
0.59901398 -0.15058328 0.86529034 255 255 255
0.59877354 -0.15053044 0.86408436 255 255 255
0.59853315 -0.15047759 0.86287832 255 255 255
0.59829277 -0.15042475 0.86167234 255 255 255
0.59805232 -0.15037189 0.86046636 255 255 255
0.59781194 -0.15031905 0.85926032 255 255 255
0.59757155 -0.15026622 0.85805434 255 255 255
0.59733111 -0.15021336 0.85684836 255 255 255
0.59802389 -0.15043052 0.85540015 255 255 255
0.59964871 -0.15091741 0.85370427 255 255 255
0.5994072 -0.15086432 0.85249281 255 255 255
0.59916568 -0.15081123 0.85128129 255 255 255
0.59985584 -0.15102781 0.84982026 255 255 255
0.60054529 -0.15124422 0.84835559 255 255 255
0.60030305 -0.15119098 0.84714043 255 255 255
0.60006082 -0.15113772 0.84592527 255 255 255
0.59981859 -0.15108448 0.84471011 255 255 255
0.6032958 -0.15210831 0.84246022 255 255 255
0.60584068 -0.1528623 0.84045619 255 255 255
0.60559589 -0.15280849 0.83922815 255 255 255
0.60535109 -0.15275468 0.83800018 255 255 255
0.60603464 -0.15296981 0.83650619 255 255 255
0.61129963 -0.15494224 0.89923906 255 255 255
0.61105704 -0.15488891 0.89802206 255 255 255
0.60986906 -0.154561 0.89698309 255 255 255
0.60962683 -0.15450776 0.89576793 255 255 255
0.6093846 -0.1544545 0.89455277 255 255 255
0.60914236 -0.15440126 0.89333761 255 255 255
0.60890013 -0.154348 0.89212245 255 255 255
0.61148864 -0.15511733 0.89034575 255 255 255
0.60841566 -0.15424152 0.88969207 255 255 255
0.60817343 -0.15418826 0.88847691 255 255 255
0.6079312 -0.15413502 0.88726175 255 255 255
0.60674685 -0.15380791 0.88624108 255 255 255
0.60650498 -0.15375474 0.88502777 255 255 255
0.6062631 -0.15370157 0.88381445 255 255 255
0.60602129 -0.15364841 0.88260108 255 255 255
0.60577941 -0.15359524 0.88138777 255 255 255
0.60553753 -0.15354207 0.8801744 255 255 255
0.60529566 -0.1534889 0.87896109 255 255 255
0.60411429 -0.15316243 0.87795508 255 255 255
0.60387278 -0.15310934 0.87674356 255 255 255
0.60175365 -0.15250996 0.87595409 255 255 255
0.60151285 -0.15245703 0.87474626 255 255 255
0.60127211 -0.1524041 0.87353843 255 255 255
0.6010313 -0.15235119 0.87233055 255 255 255
0.59891587 -0.15175261 0.87155938 255 255 255
0.59867585 -0.15169984 0.87035525 255 255 255
0.59656256 -0.15110174 0.86959505 255 255 255
0.59632325 -0.15104912 0.86839455 255 255 255
0.59608394 -0.15099652 0.86719406 255 255 255
0.59584463 -0.15094392 0.8659935 255 255 255
0.59560531 -0.15089132 0.86479306 255 255 255
0.59723562 -0.15138325 0.86313021 255 255 255
0.59699559 -0.15133049 0.86192602 255 255 255
0.5967555 -0.15127772 0.86072189 255 255 255
0.59651548 -0.15122496 0.85951769 255 255 255
0.59720874 -0.15144412 0.85807502 255 255 255
0.59696835 -0.15139127 0.85686904 255 255 255
0.59672791 -0.15133843 0.85566306 255 255 255
0.59741974 -0.15155728 0.85421306 255 255 255
0.597179 -0.15150435 0.85300523 255 255 255
0.59693825 -0.15145142 0.8517974 255 255 255
0.59855974 -0.15194142 0.85009056 255 255 255
0.59831828 -0.15188833 0.8488791 255 255 255
0.59900713 -0.15210655 0.84741443 255 255 255
0.59876525 -0.15205337 0.84620106 255 255 255
0.59852338 -0.1520002 0.84498775 255 255 255
0.60571605 -0.15411548 0.84170526 255 255 255
0.60361332 -0.15351972 0.84099823 255 255 255
0.6033693 -0.15346608 0.83977389 255 255 255
0.60312521 -0.15341242 0.83854955 255 255 255
0.60288113 -0.15335877 0.83732522 255 255 255
0.6017096 -0.15303448 0.83636868 255 255 255
0.60146588 -0.15298091 0.83514619 255 255 255
0.60214901 -0.15319782 0.83365226 255 255 255
0.61117619 -0.15618423 0.90047699 255 255 255
0.60998797 -0.15585434 0.89943427 255 255 255
0.60974574 -0.1558011 0.89821911 255 255 255
0.60950351 -0.15574786 0.89700395 255 255 255
0.60831678 -0.15541832 0.89596862 255 255 255
0.60807496 -0.15536515 0.89475524 255 255 255
0.60783309 -0.15531199 0.89354193 255 255 255
0.60759121 -0.15525882 0.89232862 255 255 255
0.60734934 -0.15520565 0.89111525 255 255 255
0.60710746 -0.15515248 0.88990194 255 255 255
0.60686558 -0.15509932 0.88868856 255 255 255
0.6056819 -0.1547704 0.88766789 255 255 255
0.60355723 -0.154166 0.88684535 255 255 255
0.60331649 -0.15411307 0.88563752 255 255 255
0.60213488 -0.15378465 0.88462782 255 255 255
0.6018945 -0.15373179 0.88342178 255 255 255
0.60165405 -0.15367895 0.8822158 255 255 255
0.60141367 -0.1536261 0.88100982 255 255 255
0.60023397 -0.15329809 0.88000923 255 255 255
0.59999388 -0.15324533 0.87880504 255 255 255
0.59975386 -0.15319256 0.87760091 255 255 255
0.59951383 -0.15313978 0.87639678 255 255 255
0.5992738 -0.15308702 0.87519258 255 255 255
0.59715867 -0.15248469 0.87441766 255 255 255
0.59691936 -0.15243208 0.87321717 255 255 255
0.59668005 -0.15237948 0.87201667 255 255 255
0.59644073 -0.15232687 0.87081617 255 255 255
0.59526533 -0.15199983 0.86983764 255 255 255
0.59502637 -0.1519473 0.86863893 255 255 255
0.59478748 -0.15189478 0.86744028 255 255 255
0.59454852 -0.15184225 0.86624157 255 255 255
0.59430957 -0.15178972 0.86504292 255 255 255
0.59500486 -0.15201125 0.86361313 255 255 255
0.59663332 -0.1525066 0.8619467 255 255 255
0.59639329 -0.15245384 0.86074257 255 255 255
0.59615326 -0.15240107 0.85953838 255 255 255
0.59591323 -0.15234829 0.85833418 255 255 255
0.5956732 -0.15229553 0.85713005 255 255 255
0.59543312 -0.15224276 0.85592586 255 255 255
0.59519309 -0.15219 0.85472167 255 255 255
0.59588432 -0.15241064 0.85327172 255 255 255
0.59564394 -0.15235779 0.85206574 255 255 255
0.59540349 -0.15230495 0.85085976 255 255 255
0.59609336 -0.15252526 0.84940243 255 255 255
0.59585255 -0.15247235 0.8481946 255 255 255
0.59747082 -0.15296544 0.84647685 255 255 255
0.5972293 -0.15291235 0.84526539 255 255 255
0.59791654 -0.15313211 0.8437953 255 255 255
0.59767467 -0.15307894 0.84258193 255 255 255
0.60207295 -0.1543892 0.84005713 255 255 255
0.60275692 -0.15460823 0.83857059 255 255 255
0.60158557 -0.15428206 0.83761215 255 255 255
0.60134184 -0.15422849 0.83638966 255 255 255
0.60109818 -0.15417492 0.83516717 255 255 255
0.60178071 -0.15439363 0.83367324 255 255 255
0.60153663 -0.15433998 0.83244896 255 255 255
0.61081004 -0.15737288 0.90049785 255 255 255
0.60962242 -0.15704121 0.89945513 255 255 255
0.60843557 -0.15670972 0.8984161 255 255 255
0.6081937 -0.15665655 0.89720273 255 255 255
0.60795182 -0.15660338 0.89598942 255 255 255
0.60770994 -0.15655021 0.89477611 255 255 255
0.60746807 -0.15649705 0.89356273 255 255 255
0.60722619 -0.15644388 0.89234942 255 255 255
0.60604191 -0.15611294 0.89132321 255 255 255
0.60580045 -0.15605985 0.89011168 255 255 255
0.60367543 -0.15545155 0.88928175 255 255 255
0.60343468 -0.15539862 0.88807392 255 255 255
0.6022529 -0.15506823 0.88706052 255 255 255
0.60201252 -0.15501539 0.88585448 255 255 255
0.60083187 -0.15468527 0.88484657 255 255 255
0.60059184 -0.15463251 0.88364244 255 255 255
0.60035181 -0.15457974 0.88243824 255 255 255
0.60011172 -0.15452698 0.88123405 255 255 255
0.59799409 -0.15392025 0.88044077 255 255 255
0.59775478 -0.15386765 0.87924027 255 255 255
0.59751546 -0.15381505 0.87803978 255 255 255
0.59727615 -0.15376243 0.87683928 255 255 255
0.59703684 -0.15370983 0.87563878 255 255 255
0.59492362 -0.15310411 0.87486744 255 255 255
0.59468502 -0.15305166 0.87367064 255 255 255
0.59444642 -0.15299922 0.87247378 255 255 255
0.59420788 -0.15294677 0.87127697 255 255 255
0.59396929 -0.15289433 0.87008011 255 255 255
0.59373069 -0.15284188 0.86888325 255 255 255
0.59349215 -0.15278943 0.86768645 255 255 255
0.59325355 -0.15273699 0.86648959 255 255 255
0.59301496 -0.15268455 0.86529279 255 255 255
0.59277642 -0.1526321 0.86409593 255 255 255
0.5944044 -0.15313117 0.86243325 255 255 255
0.59416515 -0.15307857 0.86123276 255 255 255
0.59392583 -0.15302595 0.8600322 255 255 255
0.59368652 -0.15297335 0.85883176 255 255 255
0.59531093 -0.15347165 0.85715067 255 255 255
0.5950709 -0.15341888 0.85594654 255 255 255
0.59296858 -0.15281554 0.85523021 255 255 255
0.59272927 -0.15276293 0.85402972 255 255 255
0.59248996 -0.15271033 0.85282922 255 255 255
0.59411073 -0.15320782 0.85112989 255 255 255
0.5938707 -0.15315506 0.8499257 255 255 255
0.59363067 -0.15310229 0.8487215 255 255 255
0.59431952 -0.15332431 0.84726244 255 255 255
0.59500772 -0.15354618 0.84579968 255 255 255
0.59476691 -0.15349326 0.84459186 255 255 255
0.59638184 -0.15398945 0.8428632 255 255 255
0.59614038 -0.15393636 0.84165168 255 255 255
0.5968259 -0.15415767 0.84017611 255 255 255
0.59751081 -0.15437882 0.83869684 255 255 255
0.60004777 -0.15514828 0.83667839 255 255 255
0.60073042 -0.15536894 0.83518815 255 255 255
0.60141236 -0.15558945 0.83369428 255 255 255
0.60116833 -0.15553579 0.83246994 255 255 255
0.61044395 -0.15856151 0.90051877 255 255 255
0.60925692 -0.15822807 0.89947599 255 255 255
0.60807055 -0.15789479 0.8984369 255 255 255
0.60782868 -0.15784162 0.89722359 255 255 255
0.6075868 -0.15778846 0.89601028 255 255 255
0.60734493 -0.15773529 0.89479691 255 255 255
0.60616052 -0.1574024 0.893767 255 255 255
0.605919 -0.1573493 0.89255548 255 255 255
0.60379368 -0.15673709 0.89171815 255 255 255
0.6026113 -0.15640469 0.89069921 255 255 255
0.60237092 -0.15635183 0.88949323 255 255 255
0.60118973 -0.15601969 0.88847977 255 255 255
0.6009497 -0.15596692 0.88727558 255 255 255
0.60070968 -0.15591416 0.88607144 255 255 255
0.5985902 -0.15530321 0.88526344 255 255 255
0.59835088 -0.15525061 0.88406289 255 255 255
0.59811157 -0.15519799 0.88286239 255 255 255
0.59787226 -0.15514539 0.88166189 255 255 255
0.59669465 -0.15481405 0.88066679 255 255 255
0.59457999 -0.15420417 0.87988257 255 255 255
0.59434175 -0.15415181 0.87868762 255 255 255
0.59410357 -0.15409945 0.87749255 255 255 255
0.59386533 -0.15404709 0.87629759 255 255 255
0.59362715 -0.15399472 0.87510258 255 255 255
0.59338892 -0.15394235 0.87390757 255 255 255
0.59315073 -0.15388998 0.87271255 255 255 255
0.5929125 -0.15383762 0.87151754 255 255 255
0.59267426 -0.15378526 0.87032259 255 255 255
0.59243608 -0.1537329 0.86912751 255 255 255
0.59219784 -0.15368053 0.86793256 255 255 255
0.59195966 -0.15362817 0.86673754 255 255 255
0.59172142 -0.15357581 0.86554253 255 255 255
0.59148324 -0.15352343 0.86434752 255 255 255
0.591245 -0.15347107 0.8631525 255 255 255
0.59193921 -0.15369616 0.86172283 255 255 255
0.59356469 -0.1541985 0.86005282 255 255 255
0.59332538 -0.1541459 0.85885233 255 255 255
0.59308606 -0.15409328 0.85765183 255 255 255
0.59098488 -0.15348639 0.85693544 255 255 255
0.59074628 -0.15343395 0.85573864 255 255 255
0.59143788 -0.15365849 0.85429603 255 255 255
0.59119898 -0.15360597 0.85309738 255 255 255
0.59096003 -0.15355344 0.85189867 255 255 255
0.59072107 -0.15350091 0.85070002 255 255 255
0.59141088 -0.15372504 0.84924829 255 255 255
0.59117156 -0.15367244 0.84804779 255 255 255
0.59278834 -0.15417287 0.84633386 255 255 255
0.59254831 -0.1541201 0.84512967 255 255 255
0.59416282 -0.15462002 0.84340477 255 255 255
0.59392202 -0.15456709 0.84219694 255 255 255
0.59553444 -0.15506655 0.84046096 255 255 255
0.59621906 -0.15528958 0.8389836 255 255 255
0.59782887 -0.15578845 0.83723485 255 255 255
0.59758627 -0.15573512 0.83601785 255 255 255
0.60011899 -0.1565094 0.83398664 255 255 255
0.59987527 -0.15645583 0.83276415 255 255 255
0.60055596 -0.15667795 0.83126664 255 255 255
0.61409903 -0.16093178 0.90107447 255 255 255
0.61196649 -0.16031416 0.90019488 255 255 255
0.60889137 -0.15941492 0.89949685 255 255 255
0.60770559 -0.15907985 0.89845777 255 255 255
0.60652053 -0.15874493 0.89742225 255 255 255
0.60627908 -0.15869184 0.89621079 255 255 255
0.60415262 -0.15807557 0.89536238 255 255 255
0.60296977 -0.15774113 0.89433789 255 255 255
0.60272938 -0.15768827 0.89313191 255 255 255
0.60154766 -0.1573541 0.89211297 255 255 255
0.59942561 -0.15673877 0.89128655 255 255 255
0.5991863 -0.15668617 0.89008605 255 255 255
0.59894699 -0.15663356 0.8888855 255 255 255
0.59776777 -0.15629993 0.88787937 255 255 255
0.59752882 -0.15624742 0.88668072 255 255 255
0.59728986 -0.1561949 0.88548207 255 255 255
0.59705091 -0.15614237 0.88428342 255 255 255
0.59587359 -0.15580913 0.88328642 255 255 255
0.595635 -0.15575668 0.88208961 255 255 255
0.5944587 -0.1554237 0.88109809 255 255 255
0.59422052 -0.15537134 0.87990308 255 255 255
0.59210831 -0.15475819 0.87912619 255 255 255
0.59187084 -0.15470599 0.87793481 255 255 255
0.59163338 -0.15465377 0.8767435 255 255 255
0.59139585 -0.15460157 0.87555218 255 255 255
0.5902229 -0.15426932 0.87457716 255 255 255
0.58998573 -0.1542172 0.87338769 255 255 255
0.59255302 -0.15500478 0.87153804 255 255 255
0.59231478 -0.15495242 0.87034309 255 255 255
0.5920766 -0.15490006 0.86914808 255 255 255
0.59183836 -0.1548477 0.86795306 255 255 255
0.59160018 -0.15479533 0.86675805 255 255 255
0.59136194 -0.15474297 0.86556304 255 255 255
0.59112376 -0.15469061 0.86436802 255 255 255
0.59088552 -0.15463823 0.86317301 255 255 255
0.59064728 -0.15458587 0.86197805 255 255 255
0.5904091 -0.15453351 0.86078304 255 255 255
0.59017086 -0.15448114 0.85958803 255 255 255
0.58993268 -0.15442878 0.85839301 255 255 255
0.58969444 -0.15437642 0.857198 255 255 255
0.58945626 -0.15432405 0.85600299 255 255 255
0.58921802 -0.15427169 0.85480797 255 255 255
0.58897984 -0.15421931 0.85361302 255 255 255
0.5887416 -0.15416695 0.85241801 255 255 255
0.58850336 -0.15411459 0.85122299 255 255 255
0.5891934 -0.15434067 0.84977496 255 255 255
0.58895481 -0.15428823 0.8485781 255 255 255
0.59057117 -0.15479237 0.84686792 255 255 255
0.59033185 -0.15473977 0.84566742 255 255 255
0.59194601 -0.15524346 0.84394622 255 255 255
0.59170598 -0.15519069 0.84274203 255 255 255
0.59146595 -0.15513793 0.84153783 255 255 255
0.59307718 -0.15564094 0.83980203 255 255 255
0.59468699 -0.15614365 0.83805877 255 255 255
0.59444547 -0.15609056 0.83684725 255 255 255
0.59512848 -0.15631513 0.8353644 255 255 255
0.596735 -0.15681711 0.83360469 255 255 255
0.59926385 -0.15759628 0.83156264 255 255 255
0.60995436 -0.16099213 0.90177751 255 255 255
0.60876805 -0.16065502 0.90073287 255 255 255
0.60758245 -0.16031809 0.89969194 255 255 255
0.60639763 -0.1599813 0.89865458 255 255 255
0.60427082 -0.15936112 0.89779878 255 255 255
0.60308778 -0.15902473 0.8967706 255 255 255
0.60190552 -0.15868852 0.89574611 255 255 255
0.6016655 -0.15863575 0.89454198 255 255 255
0.59954309 -0.15801652 0.89370817 255 255 255
0.59930378 -0.15796392 0.89250767 255 255 255
0.59812403 -0.15762827 0.891496 255 255 255
0.59694505 -0.15729275 0.89048803 255 255 255
0.59670645 -0.1572403 0.88929117 255 255 255
0.59646785 -0.15718786 0.88809431 255 255 255
0.59622931 -0.15713541 0.8868975 255 255 255
0.59505212 -0.15680033 0.88589865 255 255 255
0.59481388 -0.15674797 0.88470364 255 255 255
0.59457564 -0.1566956 0.88350862 255 255 255
0.59433746 -0.15664324 0.88231361 255 255 255
0.59128773 -0.15574385 0.88173461 255 255 255
0.59105062 -0.15569173 0.88054514 255 255 255
0.59081352 -0.1556396 0.87935561 255 255 255
0.59057641 -0.15558748 0.87816614 255 255 255
0.5903393 -0.15553536 0.87697661 255 255 255
0.5901022 -0.15548323 0.87578714 255 255 255
0.58986503 -0.15543111 0.87459761 255 255 255
0.58962792 -0.15537898 0.87340808 255 255 255
0.58939081 -0.15532686 0.87221861 255 255 255
0.58915371 -0.15527473 0.87102908 255 255 255
0.58985007 -0.15550414 0.86961591 255 255 255
0.5896126 -0.15545194 0.86842459 255 255 255
0.58937514 -0.15539972 0.86723328 255 255 255
0.58913761 -0.15534753 0.8660419 255 255 255
0.58890015 -0.15529533 0.86485058 255 255 255
0.58866268 -0.15524311 0.86365926 255 255 255
0.58842522 -0.15519091 0.86246789 255 255 255
0.58818769 -0.15513872 0.86127657 255 255 255
0.58795023 -0.1550865 0.86008525 255 255 255
0.58771276 -0.1550343 0.85889387 255 255 255
0.58747524 -0.1549821 0.85770255 255 255 255
0.58723778 -0.15492989 0.85651118 255 255 255
0.58885854 -0.15543886 0.85482848 255 255 255
0.58862031 -0.15538649 0.85363352 255 255 255
0.58838212 -0.15533412 0.85243851 255 255 255
0.58814389 -0.15528175 0.8512435 255 255 255
0.5879057 -0.15522939 0.85004848 255 255 255
0.58859479 -0.15545718 0.84859866 255 255 255
0.58928305 -0.15568483 0.8471452 255 255 255
0.58904415 -0.1556323 0.84594649 255 255 255
0.5888052 -0.15557978 0.84474784 255 255 255
0.58949208 -0.15580709 0.84328699 255 255 255
0.58925277 -0.15575449 0.84208649 255 255 255
0.59086365 -0.15626127 0.84035432 255 255 255
0.59154832 -0.15648811 0.83888257 255 255 255
0.59223229 -0.15671478 0.83740705 255 255 255
0.59476346 -0.15750019 0.83538526 255 255 255
0.59544528 -0.15772639 0.83389878 255 255 255
0.59520304 -0.15767314 0.83268356 255 255 255
0.59496081 -0.15761989 0.83146846 255 255 255
0.59471858 -0.15756664 0.83025324 255 255 255
0.59816498 -0.15862958 0.82791615 255 255 255
0.60794306 -0.16166265 0.90335274 255 255 255
0.60770118 -0.16160949 0.90213943 255 255 255
0.60745931 -0.16155632 0.90092605 255 255 255
0.60627466 -0.16121766 0.89988685 255 255 255
0.60414827 -0.16059373 0.89902735 255 255 255
0.60296541 -0.16025548 0.89799732 255 255 255
0.60178334 -0.1599174 0.89697099 255 255 255
0.59966058 -0.15929426 0.89612979 255 255 255
0.59942126 -0.15924166 0.89492929 255 255 255
0.59824133 -0.15890406 0.89391392 255 255 255
0.59800237 -0.15885153 0.89271522 255 255 255
0.59682357 -0.15851416 0.89170539 255 255 255
0.59564549 -0.15817694 0.89069915 255 255 255
0.59540725 -0.15812458 0.88950419 255 255 255
0.59516907 -0.15807222 0.88830918 255 255 255
0.59211552 -0.15716626 0.88770258 255 255 255
0.59187841 -0.15711413 0.88651311 255 255 255
0.59164131 -0.15706202 0.88532358 255 255 255
0.59140414 -0.1570099 0.88413405 255 255 255
0.59116703 -0.15695778 0.88294458 255 255 255
0.58999336 -0.15662152 0.88196039 255 255 255
0.58975661 -0.15656947 0.88077271 255 255 255
0.58951986 -0.15651743 0.87958503 255 255 255
0.58928311 -0.15646538 0.87839735 255 255 255
0.58904636 -0.15641335 0.87720966 255 255 255
0.58880961 -0.1563613 0.87602198 255 255 255
0.58857286 -0.15630926 0.8748343 255 255 255
0.58833611 -0.15625721 0.87364668 255 255 255
0.58809936 -0.15620518 0.87245899 255 255 255
0.5887959 -0.15643653 0.87104952 255 255 255
0.58855873 -0.15638441 0.86985999 255 255 255
0.58832163 -0.15633228 0.86867046 255 255 255
0.58808452 -0.15628016 0.86748099 255 255 255
0.58784741 -0.15622804 0.86629146 255 255 255
0.5876103 -0.15617591 0.86510199 255 255 255
0.58737314 -0.15612379 0.86391246 255 255 255
0.58713603 -0.15607166 0.86272299 255 255 255
0.58689892 -0.15601954 0.86153346 255 255 255
0.58666182 -0.15596743 0.86034393 255 255 255
0.58642471 -0.15591531 0.85915446 255 255 255
0.5861876 -0.15586318 0.85796493 255 255 255
0.58687937 -0.15609348 0.85653162 255 255 255
0.58664191 -0.15604128 0.8553403 255 255 255
0.58640444 -0.15598907 0.85414898 255 255 255
0.58616698 -0.15593687 0.85295761 255 255 255
0.58592945 -0.15588467 0.85176629 255 255 255
0.58569199 -0.15583245 0.85057497 255 255 255
0.58730799 -0.15634419 0.84887397 255 255 255
0.58706981 -0.15629183 0.84767902 255 255 255
0.58775759 -0.15652125 0.84622556 255 255 255
0.58751899 -0.15646881 0.8450287 255 255 255
0.58820564 -0.156698 0.84356976 255 255 255
0.58796674 -0.15664548 0.84237111 255 255 255
0.58865231 -0.15687442 0.84090662 255 255 255
0.588413 -0.1568218 0.83970612 255 255 255
0.59002137 -0.15733185 0.83796668 255 255 255
0.59070474 -0.15756032 0.83649123 255 255 255
0.59323359 -0.15835094 0.83446586 255 255 255
0.59391475 -0.15857893 0.83297944 255 255 255
0.59367287 -0.15852576 0.83176607 255 255 255
0.59435302 -0.1587535 0.83027411 255 255 255
0.59411079 -0.15870024 0.82905895 255 255 255
0.59755355 -0.15977003 0.82671463 255 255 255
0.60757804 -0.16284771 0.9033736 255 255 255
0.60733616 -0.16279455 0.90216023 255 255 255
0.60709435 -0.16274138 0.90094692 255 255 255
0.60591024 -0.16240093 0.89990765 255 255 255
0.60378492 -0.16177343 0.89904809 255 255 255
0.6026026 -0.16143338 0.898018 255 255 255
0.60142112 -0.1610935 0.89699161 255 255 255
0.59929943 -0.16046681 0.89615035 255 255 255
0.59811968 -0.16012733 0.89513314 255 255 255
0.5969407 -0.159788 0.89411962 255 255 255
0.59670216 -0.15973555 0.89292276 255 255 255
0.59552419 -0.15939648 0.89191473 255 255 255
0.59528601 -0.15934412 0.89071971 255 255 255
0.59317052 -0.15871878 0.88990963 255 255 255
0.59199482 -0.15838018 0.88891256 255 255 255
0.59175771 -0.15832806 0.88772303 255 255 255
0.59058309 -0.1579897 0.88673145 255 255 255
0.59034634 -0.15793765 0.88554376 255 255 255
0.59010959 -0.15788561 0.88435614 255 255 255
0.58987284 -0.15783356 0.88316846 255 255 255
0.58870006 -0.15749562 0.88218606 255 255 255
0.58846366 -0.15744366 0.88100022 255 255 255
0.58822727 -0.15739168 0.87981439 255 255 255
0.58799088 -0.15733972 0.87862849 255 255 255
0.58775449 -0.15728776 0.87744266 255 255 255
0.5875181 -0.1572358 0.87625682 255 255 255
0.5872817 -0.15718384 0.87507099 255 255 255
0.58704531 -0.15713188 0.87388515 255 255 255
0.58680892 -0.15707991 0.87269932 255 255 255
0.58750534 -0.15731314 0.8712917 255 255 255
0.58820093 -0.15754621 0.86988044 255 255 255
0.58703184 -0.15720904 0.86891633 255 255 255
0.58679509 -0.157157 0.86772871 255 255 255
0.5874896 -0.15738983 0.86631191 255 255 255
0.58725244 -0.15733771 0.86512238 255 255 255
0.58608484 -0.15700087 0.86416566 255 255 255
0.58584809 -0.15694883 0.86297798 255 255 255
0.58561134 -0.15689678 0.8617903 255 255 255
0.58537459 -0.15684474 0.86060262 255 255 255
0.58606684 -0.15707709 0.85917485 255 255 255
0.58582973 -0.15702496 0.85798538 255 255 255
0.58559263 -0.15697284 0.85679585 255 255 255
0.58535552 -0.15692072 0.85560632 255 255 255
0.58511841 -0.15686859 0.85441685 255 255 255
0.58488131 -0.15681647 0.85322732 255 255 255
0.58557111 -0.15704826 0.85178673 255 255 255
0.58533359 -0.15699604 0.85059541 255 255 255
0.58509612 -0.15694384 0.8494041 255 255 255
0.58671033 -0.15745899 0.84769952 255 255 255
0.58647209 -0.15740663 0.84650451 255 255 255
0.58715898 -0.15763776 0.84504926 255 255 255
0.58692038 -0.15758531 0.8438524 255 255 255
0.58668184 -0.15753287 0.8426556 255 255 255
0.58736718 -0.15776369 0.84119296 255 255 255
0.58712822 -0.15771116 0.83999431 255 255 255
0.58781254 -0.15794174 0.83852625 255 255 255
0.58757323 -0.15788913 0.83732569 255 255 255
0.58917904 -0.15840244 0.83557904 255 255 255
0.5907833 -0.1589154 0.83382499 255 255 255
0.59238613 -0.15942805 0.83206367 255 255 255
0.59306604 -0.15965766 0.83057356 255 255 255
0.59282416 -0.15960449 0.82936025 255 255 255
0.59626514 -0.1606815 0.8270179 255 255 255
0.60062343 -0.16204032 0.82437676 255 255 255
0.60721308 -0.16403279 0.9033944 255 255 255
0.6069712 -0.16397962 0.90218103 255 255 255
0.60672933 -0.16392645 0.90096772 255 255 255
0.60554582 -0.1635842 0.89992845 255 255 255
0.60342157 -0.16295314 0.89906883 255 255 255
0.59941691 -0.16174455 0.89857197 255 255 255
0.5991776 -0.16169193 0.89737147 255 255 255
0.59799802 -0.16135059 0.89635241 255 255 255
0.59681928 -0.1610094 0.89533699 255 255 255
0.59564114 -0.16066837 0.8943252 255 255 255
0.59540296 -0.16061601 0.89313018 255 255 255
0.59234834 -0.15969835 0.89250147 255 255 255
0.59211123 -0.15964623 0.89131194 255 255 255
0.59187412 -0.1595941 0.89012247 255 255 255
0.59069932 -0.15925379 0.88912719 255 255 255
0.59046257 -0.15920174 0.88793951 255 255 255
0.58928889 -0.15886168 0.88694978 255 255 255
0.5890525 -0.15880972 0.88576388 255 255 255
0.58881611 -0.15875776 0.88457811 255 255 255
0.58857971 -0.15870579 0.88339221 255 255 255
0.58834332 -0.15865383 0.88220638 255 255 255
0.58717185 -0.15831424 0.88122761 255 255 255
0.58693582 -0.15826236 0.88004363 255 255 255
0.58669978 -0.15821047 0.87885964 255 255 255
0.58739775 -0.15844598 0.87746304 255 255 255
0.58622777 -0.1581067 0.87649161 255 255 255
0.58599174 -0.15805483 0.87530756 255 255 255
0.58575571 -0.15800294 0.87412357 255 255 255
0.58645225 -0.15823813 0.87271965 255 255 255
0.58621585 -0.15818617 0.87153381 255 255 255
0.58691132 -0.1584211 0.8701244 255 255 255
0.58574307 -0.15808223 0.86916214 255 255 255
0.58550668 -0.15803027 0.86797631 255 255 255
0.58620107 -0.15826496 0.86656141 255 255 255
0.58596432 -0.15821292 0.86537373 255 255 255
0.5847975 -0.15787439 0.8644188 255 255 255
0.58456111 -0.15782243 0.86323297 255 255 255
0.58432472 -0.15777045 0.86204708 255 255 255
0.58408839 -0.15771849 0.86086124 255 255 255
0.58478051 -0.1579527 0.85943532 255 255 255
0.58454376 -0.15790066 0.8582477 255 255 255
0.58430701 -0.15784861 0.85706002 255 255 255
0.58407027 -0.15779658 0.85587233 255 255 255
0.58383352 -0.15774453 0.85468465 255 255 255
0.58359677 -0.15769249 0.85349697 255 255 255
0.58428633 -0.15792614 0.85205823 255 255 255
0.58404922 -0.15787402 0.8508687 255 255 255
0.58473778 -0.15810743 0.84942448 255 255 255
0.58450025 -0.15805522 0.84823316 255 255 255
0.58611262 -0.15857379 0.84652501 255 255 255
0.58587438 -0.15852143 0.84533 255 255 255
0.5856362 -0.15846907 0.84413505 255 255 255
0.58632177 -0.15870182 0.84267616 255 255 255
0.58608323 -0.15864938 0.8414793 255 255 255
0.58676767 -0.15888192 0.84001487 255 255 255
0.58652872 -0.15882939 0.83881623 255 255 255
0.58628976 -0.15877686 0.83761752 255 255 255
0.58697283 -0.15900907 0.83614582 255 255 255
0.58857673 -0.15952578 0.83439553 255 255 255
0.5901792 -0.16004217 0.83263791 255 255 255
0.59178019 -0.16055822 0.83087295 255 255 255
0.59153867 -0.16050515 0.82966143 255 255 255
0.59405762 -0.16130506 0.82760328 255 255 255
0.59933376 -0.16295725 0.82468194 255 255 255
0.59908897 -0.16290344 0.82345396 255 255 255
0.60684806 -0.16521785 0.9034152 255 255 255
0.60660619 -0.16516468 0.90220189 255 255 255
0.60636431 -0.16511151 0.90098858 255 255 255
0.60612249 -0.16505834 0.89977521 255 255 255
0.60588062 -0.16500518 0.89856189 255 255 255
0.59905577 -0.16291708 0.89859259 255 255 255
0.59317613 -0.16112076 0.89846939 255 255 255
0.59293896 -0.16106863 0.89727992 255 255 255
0.59270185 -0.16101651 0.89609039 255 255 255
0.59246475 -0.16096438 0.89490092 255 255 255
0.59222764 -0.16091226 0.89371139 255 255 255
0.59105235 -0.16056992 0.89271063 255 255 255
0.59081554 -0.16051787 0.89152294 255 255 255
0.59057879 -0.16046584 0.89033526 255 255 255
0.59034204 -0.16041379 0.88914758 255 255 255
0.58916855 -0.16007186 0.88815594 255 255 255
0.58799577 -0.15973008 0.88716799 255 255 255
0.58775979 -0.15967819 0.88598394 255 255 255
0.58752376 -0.15962631 0.88479996 255 255 255
0.58541709 -0.15899527 0.88402271 255 255 255
0.58518177 -0.15894355 0.88284242 255 255 255
0.58494651 -0.15889183 0.88166207 255 255 255
0.58471119 -0.1588401 0.88048172 255 255 255
0.58447593 -0.15878838 0.87930137 255 255 255
0.58610761 -0.15931502 0.87769592 255 255 255
0.58587158 -0.15926313 0.87651193 255 255 255
0.58563554 -0.15921125 0.87532789 255 255 255
0.58539957 -0.15915936 0.8741439 255 255 255
0.58516353 -0.15910748 0.87295985 255 255 255
0.5849275 -0.15905561 0.87177587 255 255 255
0.58469146 -0.15900372 0.87059188 255 255 255
0.58538634 -0.15924045 0.86918247 255 255 255
0.58514994 -0.15918849 0.86799669 255 255 255
0.58491355 -0.15913652 0.8668108 255 255 255
0.58467716 -0.15908456 0.86562496 255 255 255
0.58444077 -0.1590326 0.86443913 255 255 255
0.58420444 -0.15898064 0.8632533 255 255 255
0.58396804 -0.15892868 0.86206746 255 255 255
0.58373165 -0.15887672 0.86088163 255 255 255
0.58442324 -0.15911271 0.8594557 255 255 255
0.58418649 -0.15906066 0.85826808 255 255 255
0.58394974 -0.15900862 0.8570804 255 255 255
0.583713 -0.15895657 0.85589272 255 255 255
0.58347625 -0.15890454 0.85470504 255 255 255
0.5832395 -0.15885249 0.85351735 255 255 255
0.58300275 -0.15880045 0.85232973 255 255 255
0.582766 -0.1587484 0.85114205 255 255 255
0.58345425 -0.15898369 0.84969962 255 255 255
0.58321714 -0.15893157 0.84851015 255 255 255
0.58390439 -0.1591666 0.84706229 255 255 255
0.58366692 -0.15911441 0.84587097 255 255 255
0.58527672 -0.15963623 0.84415555 255 255 255
0.58503848 -0.15958387 0.84296054 255 255 255
0.5848003 -0.1595315 0.84176552 255 255 255
0.58548462 -0.15976588 0.840303 255 255 255
0.58524603 -0.15971345 0.83910614 255 255 255
0.58592921 -0.1599476 0.83763814 255 255 255
0.58569026 -0.15989508 0.83643949 255 255 255
0.58637238 -0.160129 0.83496594 255 255 255
0.58797449 -0.16064914 0.83321202 255 255 255
0.59141576 -0.16174151 0.83089375 255 255 255
0.59117424 -0.16168842 0.82968223 255 255 255
0.59369153 -0.16249369 0.8276242 255 255 255
0.59528744 -0.16301246 0.82583916 255 255 255
0.59596294 -0.16324493 0.82433259 255 255 255
0.60672492 -0.16645609 0.90464938 255 255 255
0.6064831 -0.16640292 0.90343606 255 255 255
0.60624123 -0.16634975 0.90222269 255 255 255
0.60599935 -0.16629659 0.90100938 255 255 255
0.60575747 -0.16624342 0.89979607 255 255 255
0.6055156 -0.16619025 0.8985827 255 255 255
0.59869468 -0.16408962 0.89861321 255 255 255
0.59281826 -0.16228256 0.89848983 255 255 255
0.59164208 -0.1619381 0.89748168 255 255 255
0.59140533 -0.16188605 0.896294 255 255 255
0.59116858 -0.16183402 0.89510632 255 255 255
0.59093183 -0.16178197 0.89391863 255 255 255
0.59069502 -0.16172992 0.89273101 255 255 255
0.59045827 -0.16167788 0.89154333 255 255 255
0.5892846 -0.16133399 0.89054799 255 255 255
0.58904821 -0.16128203 0.88936216 255 255 255
0.58787566 -0.16093838 0.8883723 255 255 255
0.58576787 -0.16030328 0.88758403 255 255 255
0.58553261 -0.16025156 0.88640368 255 255 255
0.58529729 -0.16019984 0.88522333 255 255 255
0.58506203 -0.16014811 0.88404298 255 255 255
0.58482671 -0.16009639 0.88286269 255 255 255
0.58459145 -0.16004467 0.88168234 255 255 255
0.58435613 -0.15999295 0.88050199 255 255 255
0.58412087 -0.15994123 0.87932163 255 255 255
0.58388555 -0.1598895 0.87814128 255 255 255
0.58365029 -0.15983778 0.87696093 255 255 255
0.58341497 -0.15978606 0.87578058 255 255 255
0.58317965 -0.15973434 0.87460029 255 255 255
0.58294439 -0.15968262 0.87341994 255 255 255
0.58270907 -0.15963089 0.87223959 255 255 255
0.58247381 -0.15957917 0.87105924 255 255 255
0.58409929 -0.16010825 0.86942816 255 255 255
0.58386326 -0.16005638 0.86824417 255 255 255
0.58362722 -0.1600045 0.86706018 255 255 255
0.58339125 -0.15995261 0.8658762 255 255 255
0.58315521 -0.15990072 0.86469215 255 255 255
0.58291918 -0.15984884 0.86350816 255 255 255
0.58268315 -0.15979697 0.86232412 255 255 255
0.58337492 -0.16003492 0.86090195 255 255 255
0.58313853 -0.15998296 0.85971612 255 255 255
0.58290213 -0.159931 0.85853028 255 255 255
0.58266574 -0.15987904 0.85734445 255 255 255
0.58242935 -0.15982707 0.85615861 255 255 255
0.58219296 -0.15977511 0.85497278 255 255 255
0.58195657 -0.15972315 0.85378695 255 255 255
0.58172023 -0.15967119 0.85260105 255 255 255
0.58240873 -0.15990841 0.85116243 255 255 255
0.58217198 -0.15985636 0.84997475 255 255 255
0.58193523 -0.15980433 0.84878707 255 255 255
0.58354604 -0.16033019 0.84708273 255 255 255
0.58330858 -0.16027798 0.84589142 255 255 255
0.58491725 -0.16080339 0.84417605 255 255 255
0.58467901 -0.16075103 0.84298104 255 255 255
0.58444083 -0.16069867 0.84178603 255 255 255
0.58512455 -0.16093485 0.84032357 255 255 255
0.58488601 -0.1608824 0.83912671 255 255 255
0.58464742 -0.16082996 0.83792984 255 255 255
0.58532965 -0.16106583 0.83645999 255 255 255
0.58601123 -0.16130152 0.83498657 255 255 255
0.58761227 -0.16182525 0.8332327 255 255 255
0.58737218 -0.16177249 0.83202851 255 255 255
0.58805156 -0.1620077 0.83054399 255 255 255
0.59516358 -0.16425818 0.82708073 255 255 255
0.59492022 -0.16420469 0.82586008 255 255 255
0.59559518 -0.16443896 0.82435358 255 255 255
0.60565996 -0.16739947 0.90604836 255 255 255
0.6054185 -0.16734639 0.90483689 255 255 255
0.60517699 -0.1672933 0.90362537 255 255 255
0.60493547 -0.16724022 0.90241385 255 255 255
0.60469395 -0.16718712 0.90120238 255 255 255
0.60445249 -0.16713403 0.89999086 255 255 255
0.60515064 -0.16737531 0.89860356 255 255 255
0.59175831 -0.16320218 0.89987743 255 255 255
0.59152156 -0.16315015 0.89868975 255 255 255
0.59034616 -0.16280399 0.89768338 255 255 255
0.59010977 -0.16275203 0.89649755 255 255 255
0.58987343 -0.16270007 0.89531171 255 255 255
0.58963704 -0.1626481 0.89412588 255 255 255
0.58940065 -0.16259614 0.89294004 255 255 255
0.58916426 -0.16254418 0.89175421 255 255 255
0.58799154 -0.16219857 0.89076066 255 255 255
0.5877555 -0.16214669 0.88957667 255 255 255
0.58751947 -0.1620948 0.88839263 255 255 255
0.5854128 -0.16145612 0.8876043 255 255 255
0.58517754 -0.1614044 0.88642395 255 255 255
0.58494222 -0.16135268 0.88524359 255 255 255
0.58377272 -0.16100779 0.88426656 255 255 255
0.58353782 -0.16095614 0.88308805 255 255 255
0.58330286 -0.16090451 0.88190955 255 255 255
0.58306795 -0.16085286 0.88073105 255 255 255
0.58283299 -0.16080123 0.87955254 255 255 255
0.58259809 -0.16074958 0.87837404 255 255 255
0.58236319 -0.16069794 0.87719548 255 255 255
0.58119667 -0.16035372 0.87623316 255 255 255
0.58096206 -0.16030216 0.87505651 255 255 255
0.58165836 -0.16054302 0.87365997 255 255 255
0.58142346 -0.16049138 0.87248147 255 255 255
0.58118856 -0.16043973 0.87130296 255 255 255
0.58188343 -0.16068029 0.86989915 255 255 255
0.58164817 -0.16062857 0.8687188 255 255 255
0.58141285 -0.16057685 0.86753845 255 255 255
0.58117759 -0.16052513 0.86635816 255 255 255
0.58094227 -0.16047341 0.86517781 255 255 255
0.58070701 -0.16042168 0.86399746 255 255 255
0.58232701 -0.16095339 0.8623445 255 255 255
0.58209097 -0.1609015 0.86116046 255 255 255
0.58185494 -0.16084962 0.85997647 255 255 255
0.5825454 -0.16108921 0.85855067 255 255 255
0.58230901 -0.16103725 0.85736477 255 255 255
0.58207262 -0.16098529 0.856179 255 255 255
0.58183628 -0.16093333 0.8549931 255 255 255
0.58159989 -0.16088136 0.85380727 255 255 255
0.5813635 -0.1608294 0.85262144 255 255 255
0.58112711 -0.16077743 0.8514356 255 255 255
0.58089072 -0.16072547 0.85024977 255 255 255
0.58065432 -0.16067351 0.84906393 255 255 255
0.58134121 -0.16091229 0.84761977 255 255 255
0.58202726 -0.16115092 0.84617198 255 255 255
0.58271271 -0.16138937 0.84472048 255 255 255
0.58247519 -0.16133715 0.84352916 255 255 255
0.58408129 -0.16186583 0.84180653 255 255 255
0.58384311 -0.16181347 0.84061152 255 255 255
0.58360487 -0.16176111 0.8394165 255 255 255
0.58336669 -0.16170874 0.83822155 255 255 255
0.58404881 -0.16194646 0.83675361 255 255 255
0.58473015 -0.16218404 0.83528197 255 255 255
0.58541077 -0.16242145 0.83380663 255 255 255
0.58700997 -0.16294861 0.83204919 255 255 255
0.58676994 -0.16289584 0.830845 255 255 255
0.58652991 -0.16284306 0.82964087 255 255 255
0.59455305 -0.16539691 0.825881 255 255 255
0.59430969 -0.16534342 0.82466036 255 255 255
0.60647869 -0.16893256 0.90711772 255 255 255
0.60529554 -0.16858275 0.90606916 255 255 255
0.60505402 -0.16852966 0.90485764 255 255 255
0.60481256 -0.16847657 0.90364617 255 255 255
0.60457104 -0.16842349 0.90243465 255 255 255
0.60244977 -0.16777776 0.90156746 255 255 255
0.60220903 -0.16772483 0.90035963 255 255 255
0.59257686 -0.16471039 0.90090966 255 255 255
0.59140104 -0.16436219 0.89989781 255 255 255
0.59116429 -0.16431014 0.89871013 255 255 255
0.58998948 -0.1639622 0.89770377 255 255 255
0.58881545 -0.16361441 0.89670104 255 255 255
0.58857942 -0.16356252 0.89551699 255 255 255
0.58834338 -0.16351064 0.894333 255 255 255
0.58810741 -0.16345876 0.89314902 255 255 255
0.58787137 -0.16340688 0.89196497 255 255 255
0.58576363 -0.16276413 0.89116561 255 255 255
0.58552831 -0.16271241 0.8899852 255 255 255
0.58435792 -0.16236541 0.88900083 255 255 255
0.58412296 -0.16231377 0.88782233 255 255 255
0.58388805 -0.16226213 0.88664383 255 255 255
0.58271915 -0.16191547 0.88566679 255 255 255
0.5824846 -0.16186391 0.88449007 255 255 255
0.58225006 -0.16181235 0.88331342 255 255 255
0.58201545 -0.16176079 0.8821367 255 255 255
0.58178091 -0.16170922 0.88096005 255 255 255
0.58154637 -0.16165766 0.87978339 255 255 255
0.58131176 -0.1616061 0.87860668 255 255 255
0.58107722 -0.16155455 0.87743002 255 255 255
0.58084267 -0.16150299 0.87625337 255 255 255
0.58060813 -0.16145141 0.87507665 255 255 255
0.58037353 -0.16139986 0.8739 255 255 255
0.58013898 -0.1613483 0.87272334 255 255 255
0.57990444 -0.16129674 0.87154663 255 255 255
0.57966989 -0.16124517 0.87036997 255 255 255
0.57943529 -0.16119361 0.86919332 255 255 255
0.57920074 -0.16114205 0.8680166 255 255 255
0.5798943 -0.16138422 0.86660916 255 255 255
0.5796594 -0.16133258 0.86543065 255 255 255
0.57942444 -0.16128094 0.86425215 255 255 255
0.58011663 -0.16152281 0.86283737 255 255 255
0.57988137 -0.16147108 0.86165702 255 255 255
0.57964605 -0.16141936 0.86047667 255 255 255
0.58126277 -0.16195416 0.85881275 255 255 255
0.58102673 -0.16190228 0.85762876 255 255 255
0.5807907 -0.16185039 0.85644478 255 255 255
0.58055472 -0.16179852 0.85526073 255 255 255
0.58031869 -0.16174664 0.85407674 255 255 255
0.58008265 -0.16169475 0.85289276 255 255 255
0.58077037 -0.16193566 0.85145593 255 255 255
0.58053398 -0.16188368 0.85027015 255 255 255
0.58029759 -0.16183172 0.84908426 255 255 255
0.5800612 -0.16177976 0.84789842 255 255 255
0.57982481 -0.1617278 0.84671259 255 255 255
0.58051044 -0.1619682 0.84526479 255 255 255
0.58119524 -0.16220845 0.84381336 255 255 255
0.58187938 -0.16244854 0.84235829 255 255 255
0.58164185 -0.16239634 0.84116697 255 255 255
0.58140439 -0.16234413 0.8399756 255 255 255
0.58300722 -0.16287591 0.83824205 255 255 255
0.5836888 -0.16311543 0.83677411 255 255 255
0.58436954 -0.1633548 0.83530253 255 255 255
0.58413059 -0.16330227 0.83410382 255 255 255
0.58481038 -0.16354139 0.83262676 255 255 255
0.58457106 -0.16348878 0.83142626 255 255 255
0.58433175 -0.16343617 0.83022571 255 255 255
0.59418583 -0.16658914 0.82590199 255 255 255
0.59394252 -0.16653565 0.82468134 255 255 255
0.59369916 -0.16648217 0.8234607 255 255 255
0.60635555 -0.17017078 0.9083519 255 255 255
0.60611367 -0.17011762 0.90713853 255 255 255
0.60493112 -0.16976602 0.90608996 255 255 255
0.6046896 -0.16971293 0.90487844 255 255 255
0.60444808 -0.16965985 0.90366697 255 255 255
0.60232723 -0.16901039 0.90279603 255 255 255
0.59738988 -0.16746695 0.90244865 255 255 255
0.59715092 -0.16741443 0.90125 255 255 255
0.59221905 -0.16587219 0.90093011 255 255 255
0.59010553 -0.16522434 0.90009582 255 255 255
0.58986914 -0.16517238 0.89890993 255 255 255
0.58869529 -0.16482271 0.89790535 255 255 255
0.58845925 -0.16477083 0.89672136 255 255 255
0.58822328 -0.16471896 0.89553738 255 255 255
0.58798724 -0.16466707 0.89435333 255 255 255
0.58587915 -0.16402042 0.89354652 255 255 255
0.58564383 -0.1639687 0.89236617 255 255 255
0.58447325 -0.16361976 0.8913781 255 255 255
0.58423829 -0.16356811 0.8901996 255 255 255
0.58400339 -0.16351646 0.88902104 255 255 255
0.5828343 -0.16316786 0.8880403 255 255 255
0.58259976 -0.16311629 0.88686365 255 255 255
0.58236521 -0.16306473 0.88568699 255 255 255
0.58213061 -0.16301318 0.88451028 255 255 255
0.58189607 -0.16296162 0.88333362 255 255 255
0.58072907 -0.16261345 0.88236386 255 255 255
0.58049488 -0.16256197 0.88118899 255 255 255
0.58026069 -0.1625105 0.88001418 255 255 255
0.58002645 -0.16245902 0.87883931 255 255 255
0.57979226 -0.16240753 0.87766445 255 255 255
0.57955807 -0.16235605 0.87648964 255 255 255
0.57932389 -0.16230457 0.87531483 255 255 255
0.5790897 -0.16225308 0.87413996 255 255 255
0.57885551 -0.16220161 0.8729651 255 255 255
0.57955045 -0.16244599 0.87156683 255 255 255
0.5793159 -0.16239443 0.87039018 255 255 255
0.57908136 -0.16234288 0.86921346 255 255 255
0.57884681 -0.16229132 0.86803681 255 255 255
0.57861221 -0.16223976 0.86686015 255 255 255
0.57837766 -0.16218819 0.86568344 255 255 255
0.57814312 -0.16213663 0.86450678 255 255 255
0.57790858 -0.16208507 0.86333013 255 255 255
0.57767397 -0.16203351 0.86215341 255 255 255
0.57743943 -0.16198194 0.86097676 255 255 255
0.57905573 -0.16252048 0.85931659 255 255 255
0.57882041 -0.16246876 0.8581363 255 255 255
0.57858509 -0.16241704 0.85695589 255 255 255
0.57834983 -0.16236532 0.85577559 255 255 255
0.57811451 -0.1623136 0.85459524 255 255 255
0.57787925 -0.16226187 0.85341489 255 255 255
0.57949048 -0.1627993 0.85172904 255 255 255
0.57925445 -0.16274741 0.85054505 255 255 255
0.57901841 -0.16269553 0.84936106 255 255 255
0.57970446 -0.16293797 0.84791881 255 255 255
0.57946813 -0.16288601 0.84673297 255 255 255
0.57923174 -0.16283405 0.84554708 255 255 255
0.57991642 -0.16307616 0.84409755 255 255 255
0.57967967 -0.16302411 0.84290987 255 255 255
0.58036315 -0.163266 0.8414548 255 255 255
0.58012605 -0.16321388 0.84026527 255 255 255
0.57988894 -0.16316175 0.8390758 255 255 255
0.5824095 -0.16399071 0.83706754 255 255 255
0.58309019 -0.16423193 0.83559781 255 255 255
0.58285159 -0.16417949 0.83440101 255 255 255
0.58353108 -0.16442049 0.83292574 255 255 255
0.58420992 -0.16466132 0.83144683 255 255 255
0.58397061 -0.16460872 0.83024633 255 255 255
0.59381866 -0.16778137 0.82592297 255 255 255
0.5935753 -0.16772787 0.82470226 255 255 255
0.59333199 -0.16767439 0.82348162 255 255 255
0.60504967 -0.17105548 0.90853375 255 255 255
0.60480815 -0.17100239 0.90732229 255 255 255
0.60268617 -0.17034887 0.90644026 255 255 255
0.60244542 -0.17029594 0.90523243 255 255 255
0.60220462 -0.17024301 0.9040246 255 255 255
0.60008562 -0.16959015 0.90315717 255 255 255
0.59702927 -0.16863769 0.90246922 255 255 255
0.59491354 -0.16798554 0.90161836 255 255 255
0.59186119 -0.16703399 0.90095055 255 255 255
0.5897488 -0.16638257 0.90011615 255 255 255
0.58951241 -0.16633059 0.89893031 255 255 255
0.58646524 -0.16538015 0.89828813 255 255 255
0.58622992 -0.16532843 0.89710784 255 255 255
0.58599466 -0.16527671 0.89592749 255 255 255
0.58575934 -0.16522498 0.89474714 255 255 255
0.58458859 -0.16487409 0.89375532 255 255 255
0.58435363 -0.16482244 0.89257681 255 255 255
0.583184 -0.16447181 0.89159054 255 255 255
0.58294946 -0.16442025 0.89041388 255 255 255
0.58271492 -0.16436869 0.88923717 255 255 255
0.5815466 -0.16401833 0.88825822 255 255 255
0.58131242 -0.16396685 0.88708341 255 255 255
0.58107823 -0.16391537 0.88590854 255 255 255
0.58084404 -0.1638639 0.88473368 255 255 255
0.58060986 -0.16381241 0.88355887 255 255 255
0.58037567 -0.16376093 0.88238406 255 255 255
0.58014143 -0.16370945 0.88120919 255 255 255
0.57990724 -0.16365796 0.88003433 255 255 255
0.57967305 -0.16360648 0.87885952 255 255 255
0.57943887 -0.16355501 0.87768465 255 255 255
0.57920468 -0.16350353 0.87650979 255 255 255
0.57897049 -0.16345204 0.87533498 255 255 255
0.57873631 -0.16340056 0.87416011 255 255 255
0.57850206 -0.16334908 0.87298524 255 255 255
0.57826787 -0.16329759 0.87181044 255 255 255
0.57803369 -0.16324612 0.87063557 255 255 255
0.5777995 -0.16319464 0.86946076 255 255 255
0.57756531 -0.16314316 0.86828589 255 255 255
0.57733113 -0.16309167 0.86711109 255 255 255
0.57709694 -0.16304019 0.86593622 255 255 255
0.57686275 -0.16298871 0.86476135 255 255 255
0.57755458 -0.16323434 0.86335027 255 255 255
0.57732004 -0.16318277 0.86217362 255 255 255
0.57708544 -0.16313121 0.86099696 255 255 255
0.57685089 -0.16307965 0.85982025 255 255 255
0.57846534 -0.1636216 0.8581565 255 255 255
0.57823002 -0.16356988 0.85697615 255 255 255
0.57799476 -0.16351816 0.85579586 255 255 255
0.57775944 -0.16346644 0.85461551 255 255 255
0.57752419 -0.16341472 0.85343516 255 255 255
0.57728887 -0.16336299 0.85225481 255 255 255
0.57705361 -0.16331127 0.85107446 255 255 255
0.57681829 -0.16325955 0.84989417 255 255 255
0.57842624 -0.16380006 0.84819734 255 255 255
0.57819021 -0.16374819 0.84701335 255 255 255
0.57795417 -0.1636963 0.84582937 255 255 255
0.57863861 -0.1639403 0.84438163 255 255 255
0.57840222 -0.16388834 0.8431958 255 255 255
0.57816583 -0.16383637 0.84200996 255 255 255
0.57884884 -0.16408004 0.84055489 255 255 255
0.57861209 -0.16402799 0.83936721 255 255 255
0.57929397 -0.16427143 0.83790672 255 255 255
0.58181179 -0.16510551 0.83589303 255 255 255
0.58157361 -0.16505314 0.83469808 255 255 255
0.58133537 -0.16500077 0.83350307 255 255 255
0.58109719 -0.1649484 0.83230805 255 255 255
0.58360946 -0.16578124 0.83026695 255 255 255
0.59345144 -0.16897359 0.82594389 255 255 255
0.59320813 -0.1689201 0.82472324 255 255 255
0.59296477 -0.16886662 0.82350254 255 255 255
0.60468525 -0.17223875 0.90855455 255 255 255
0.60444373 -0.17218566 0.90734303 255 255 255
0.60232282 -0.17152856 0.906461 255 255 255
0.60208207 -0.17147563 0.90525317 255 255 255
0.59996343 -0.17081903 0.90438205 255 255 255
0.59784621 -0.17016271 0.90351826 255 255 255
0.59666866 -0.16980843 0.90248978 255 255 255
0.59455407 -0.16915272 0.90163887 255 255 255
0.59150338 -0.16819577 0.90097094 255 255 255
0.58939207 -0.16754077 0.90013653 255 255 255
0.58915567 -0.16748881 0.8989507 255 255 255
0.58611017 -0.16653299 0.8983084 255 255 255
0.58493882 -0.16618006 0.89731109 255 255 255
