ply
format ascii 1.0
comment PCL generated
element vertex 1164
property float x
property float y
property float z
property uchar red
property uchar green
property uchar blue
element camera 0
property float view_px
property float view_py
property float view_pz
property float x_axisx
property float x_axisy
property float x_axisz
property float y_axisx
property float y_axisy
property float y_axisz
property float z_axisx
property float z_axisy
property float z_axisz
property float focal
property float scalex
property float scaley
property float centerx
property float centery
property int viewportx
property int viewporty
property float k1
property float k2
end_header
0.21952003 0.39976481 0.95060682 0 255 0
0.21958265 0.39981604 0.94961494 0 255 0
0.21964523 0.3998673 0.94862306 0 255 0
0.21970785 0.39991853 0.94763124 0 255 0
0.21977043 0.39996976 0.94663936 0 255 0
0.21928728 0.39916837 0.9456839 0 255 0
0.21934977 0.39921951 0.94469386 0 255 0
0.21941224 0.39927065 0.94370389 0 255 0
0.21947473 0.39932179 0.94271386 0 255 0
0.21953723 0.39937294 0.94172382 0 255 0
0.21959969 0.39942408 0.94073385 0 255 0
0.21966219 0.39947522 0.93974382 0 255 0
0.21972466 0.39952633 0.93875384 0 255 0
0.21978715 0.39957747 0.93776381 0 255 0
0.21984965 0.39962861 0.93677378 0 255 0
0.22069564 0.40027294 0.96152073 0 255 0
0.22075847 0.40032437 0.9605251 0 255 0
0.22082132 0.40037578 0.95952952 0 255 0
0.22088414 0.40042722 0.95853388 0 255 0
0.220947 0.40047863 0.95753831 0 255 0
0.22100982 0.40053007 0.95654273 0 255 0
0.22107267 0.40058151 0.95554709 0 255 0
0.22058934 0.3997823 0.95457113 0 255 0
0.22065207 0.39983365 0.95357734 0 255 0
0.22016841 0.3990342 0.95260698 0 255 0
0.22023103 0.39908543 0.9516151 0 255 0
0.22029361 0.39913666 0.95062321 0 255 0
0.22035623 0.39918789 0.94963133 0 255 0
0.22041884 0.39923915 0.94863945 0 255 0
0.22048143 0.39929038 0.94764757 0 255 0
0.22054404 0.39934161 0.94665569 0 255 0
0.22005942 0.39854139 0.94570023 0 255 0
0.22012189 0.39859253 0.9447102 0 255 0
0.22018439 0.39864367 0.94372022 0 255 0
0.22024688 0.39869481 0.94273019 0 255 0
0.22030935 0.39874595 0.94174021 0 255 0
0.21982402 0.39794511 0.9407959 0 255 0
0.21988639 0.39799616 0.93980771 0 255 0
0.21994874 0.39804718 0.93881959 0 255 0
0.2205593 0.39895052 0.93778014 0 255 0
0.22062179 0.39900166 0.93679017 0 255 0
0.22147214 0.39964244 0.96153718 0 255 0
0.22153497 0.39969385 0.96054155 0 255 0
0.22159782 0.39974529 0.95954597 0 255 0
0.22166064 0.39979669 0.95855033 0 255 0
0.2217235 0.39984813 0.95755476 0 255 0
0.22178632 0.39989957 0.95655912 0 255 0
0.22130167 0.39910164 0.95558125 0 255 0
0.22136441 0.39915299 0.95458752 0 255 0
0.22087941 0.39835483 0.95361519 0 255 0
0.22094202 0.39840606 0.95262337 0 255 0
0.22100461 0.39845729 0.95163149 0 255 0
0.22106722 0.39850852 0.95063961 0 255 0
0.22112983 0.39855975 0.94964772 0 255 0
0.22064409 0.39776102 0.9486866 0 255 0
0.22070658 0.39781216 0.94769657 0 255 0
0.22076908 0.3978633 0.94670659 0 255 0
0.22083154 0.39791444 0.94571656 0 255 0
0.22089404 0.39796558 0.94472659 0 255 0
0.22095653 0.39801672 0.94373655 0 255 0
0.221019 0.39806786 0.94274652 0 255 0
0.2210815 0.398119 0.94175655 0 255 0
0.2205947 0.39731932 0.94081223 0 255 0
0.22065705 0.39737037 0.93982404 0 255 0
0.22071943 0.39742139 0.93883592 0 255 0
0.22133145 0.39832357 0.93779647 0 255 0
0.22139391 0.39837471 0.9368065 0 255 0
0.22218582 0.3989605 0.96254921 0 255 0
0.22224864 0.39901191 0.96155357 0 255 0
0.22231147 0.39906335 0.960558 0 255 0
0.22237432 0.39911479 0.95956236 0 255 0
0.22243717 0.3991662 0.95856678 0 255 0
0.2225 0.39921764 0.95757121 0 255 0
0.22201401 0.39842099 0.95659137 0 255 0
0.22207671 0.39847234 0.95559764 0 255 0
0.2215904 0.39767542 0.95462346 0 255 0
0.22165301 0.39772668 0.95363158 0 255 0
0.2217156 0.39777792 0.9526397 0 255 0
0.22177821 0.39782915 0.95164782 0 255 0
0.22184083 0.39788038 0.950656 0 255 0
0.22135377 0.3970829 0.94969296 0 255 0
0.22141623 0.39713404 0.94870293 0 255 0
0.22147873 0.39718518 0.94771296 0 255 0
0.22154123 0.39723632 0.94672292 0 255 0
0.22160369 0.39728746 0.94573295 0 255 0
0.22166619 0.3973386 0.94474292 0 255 0
0.22172868 0.39738974 0.94375288 0 255 0
0.22179115 0.39744088 0.94276291 0 255 0
0.22185364 0.39749202 0.94177288 0 255 0
0.22136539 0.39669353 0.9408285 0 255 0
0.22142774 0.39674458 0.93984038 0 255 0
0.22149011 0.39679563 0.93885225 0 255 0
0.22210357 0.39769658 0.93781286 0 255 0
0.22302514 0.39838141 0.96157002 0 255 0
0.22253817 0.39758635 0.96058273 0 255 0
0.22260091 0.39763767 0.959589 0 255 0
0.22266361 0.39768901 0.95859528 0 255 0
0.22272635 0.39774033 0.95760155 0 255 0
0.22278905 0.39779165 0.95660782 0 255 0
0.22230139 0.39699605 0.95563173 0 255 0
0.22236401 0.39704728 0.95463985 0 255 0
0.22242659 0.39709854 0.95364797 0 255 0
0.22248921 0.39714977 0.95265609 0 255 0
0.22255179 0.397201 0.95166421 0 255 0
0.22206342 0.3964048 0.95069933 0 255 0
0.22212592 0.39645594 0.9497093 0 255 0
0.22218838 0.39650708 0.94871932 0 255 0
0.22225088 0.39655823 0.94772929 0 255 0
0.22231334 0.39660937 0.94673926 0 255 0
0.22237584 0.39666051 0.94574928 0 255 0
0.22243834 0.39671165 0.94475925 0 255 0
0.2225008 0.39676279 0.94376928 0 255 0
0.2225633 0.39681393 0.94277924 0 255 0
0.22262579 0.39686507 0.94178921 0 255 0
0.22268826 0.39691621 0.94079924 0 255 0
0.22275075 0.39696735 0.9398092 0 255 0
0.22281322 0.39701849 0.93881923 0 255 0
0.22342825 0.39791831 0.937778 0 255 0
0.22380164 0.39775091 0.96158648 0 255 0
0.22331321 0.39695701 0.96059918 0 255 0
0.22337595 0.39700836 0.95960546 0 255 0
0.22343865 0.39705968 0.95861167 0 255 0
0.22350138 0.39711103 0.95761794 0 255 0
0.22301239 0.39631668 0.95663995 0 255 0
0.223075 0.39636791 0.95564806 0 255 0
0.22313759 0.39641914 0.95465624 0 255 0
0.2232002 0.3964704 0.95366436 0 255 0
0.22326282 0.39652163 0.95267248 0 255 0
0.22277308 0.39572671 0.95170569 0 255 0
0.22283557 0.39577785 0.95071566 0 255 0
0.22289804 0.39582899 0.94972563 0 255 0
0.22296053 0.39588013 0.94873565 0 255 0
0.22302303 0.39593127 0.94774562 0 255 0
0.22308549 0.39598241 0.94675565 0 255 0
0.22314799 0.39603356 0.94576561 0 255 0
0.22321048 0.3960847 0.94477558 0 255 0
0.22327295 0.39613584 0.94378561 0 255 0
0.22333544 0.39618695 0.94279557 0 255 0
0.22339794 0.39623809 0.9418056 0 255 0
0.22346041 0.39628923 0.94081557 0 255 0
0.2235229 0.39634037 0.93982553 0 255 0
0.22358537 0.39639151 0.93883556 0 255 0
0.22420183 0.39729017 0.93779439 0 255 0
0.22457817 0.39712039 0.96160293 0 255 0
0.22408828 0.3963277 0.96061558 0 255 0
0.22415099 0.39637902 0.95962185 0 255 0
0.22421372 0.39643034 0.95862812 0 255 0
0.22427642 0.39648169 0.95763439 0 255 0
0.223786 0.39568853 0.95665634 0 255 0
0.22384858 0.39573976 0.95566446 0 255 0
0.2239112 0.39579099 0.95467257 0 255 0
0.22342023 0.39499745 0.95370203 0 255 0
0.22348273 0.39504859 0.95271206 0 255 0
0.22354522 0.39509973 0.95172203 0 255 0
0.22360769 0.39515087 0.95073199 0 255 0
0.22367018 0.39520201 0.94974202 0 255 0
0.22373268 0.39525315 0.94875199 0 255 0
0.22379515 0.39530429 0.94776201 0 255 0
0.22385764 0.39535543 0.94677198 0 255 0
0.22392014 0.39540657 0.94578195 0 255 0
0.2239826 0.39545771 0.94479197 0 255 0
0.2240451 0.39550886 0.94380194 0 255 0
0.22410759 0.39556 0.94281191 0 255 0
0.22417006 0.39561114 0.94182193 0 255 0
0.22423255 0.39566228 0.9408319 0 255 0
0.22429502 0.39571342 0.93984193 0 255 0
0.22435752 0.39576456 0.93885189 0 255 0
0.22497544 0.39666203 0.93781072 0 255 0
0.22590873 0.39733279 0.961613 0 255 0
0.22597167 0.39738432 0.96061552 0 255 0
0.22548035 0.39659277 0.95962816 0 255 0
0.22554317 0.39664418 0.95863253 0 255 0
0.22505149 0.39585236 0.95765078 0 255 0
0.2251142 0.39590371 0.95665705 0 255 0
0.22462219 0.39511162 0.95568085 0 255 0
0.22468477 0.39516285 0.95468897 0 255 0
0.22419238 0.3943705 0.95371836 0 255 0
0.22425488 0.39442164 0.95272839 0 255 0
0.22431734 0.39447278 0.95173836 0 255 0
0.22437984 0.39452392 0.95074838 0 255 0
0.22444233 0.39457506 0.94975835 0 255 0
0.2245048 0.3946262 0.94876832 0 255 0
0.22456729 0.39467734 0.94777834 0 255 0
0.22462979 0.39472848 0.94678831 0 255 0
0.22469226 0.39477962 0.94579834 0 255 0
0.22475475 0.39483076 0.9448083 0 255 0
0.22481725 0.3948819 0.94381827 0 255 0
0.22487971 0.39493304 0.9428283 0 255 0
0.22494221 0.39498419 0.94183826 0 255 0
0.2250047 0.39503533 0.94084829 0 255 0
0.22506717 0.39508647 0.93985826 0 255 0
0.22568643 0.39598265 0.93881899 0 255 0
0.22625685 0.39596224 0.95964456 0 255 0
0.22631967 0.39601368 0.95864898 0 255 0
0.22582653 0.39522305 0.95766717 0 255 0
0.22588924 0.39527437 0.95667344 0 255 0
0.22595197 0.39532569 0.95567971 0 255 0
0.2260147 0.39537704 0.95468599 0 255 0
0.22607741 0.39542836 0.9536922 0 255 0
0.22614014 0.39547971 0.95269847 0 255 0
0.22620285 0.39553103 0.95170474 0 255 0
0.22570878 0.39473966 0.95073783 0 255 0
0.2257714 0.39479089 0.94974601 0 255 0
0.22583398 0.39484212 0.94875413 0 255 0
0.2258966 0.39489338 0.94776225 0 255 0
0.22595921 0.39494461 0.94677037 0 255 0
0.2260218 0.39499584 0.94577849 0 255 0
0.22608441 0.39504707 0.94478661 0 255 0
0.226147 0.3950983 0.94379473 0 255 0
0.22620961 0.39514956 0.94280285 0 255 0
0.2262722 0.39520079 0.94181097 0 255 0
0.22633481 0.39525202 0.94081914 0 255 0
0.22639742 0.39530325 0.93982726 0 255 0
0.22701821 0.39619836 0.93878615 0 255 0
0.22647613 0.39449105 0.95967108 0 255 0
0.22653887 0.39454237 0.95867729 0 255 0
0.22660157 0.39459372 0.95768356 0 255 0
0.2266643 0.39464504 0.95668983 0 255 0
0.22672704 0.39469638 0.95569611 0 255 0
0.22678974 0.3947477 0.95470238 0 255 0
0.22685245 0.39479905 0.95370865 0 255 0
0.22691518 0.39485037 0.95271492 0 255 0
0.22697791 0.39490172 0.95172119 0 255 0
0.22648239 0.39411151 0.95075423 0 255 0
0.22654501 0.39416274 0.94976234 0 255 0
0.22660759 0.39421397 0.94877046 0 255 0
0.22667021 0.39426523 0.94777864 0 255 0
0.22673279 0.39431646 0.94678676 0 255 0
0.22679541 0.39436769 0.94579488 0 255 0
0.22685799 0.39441893 0.944803 0 255 0
0.2269206 0.39447016 0.94381112 0 255 0
0.22698322 0.39452142 0.94281924 0 255 0
0.2270458 0.39457265 0.94182736 0 255 0
0.22710842 0.39462388 0.94083548 0 255 0
0.227171 0.39467511 0.93984365 0 255 0
0.22779325 0.39556903 0.93880254 0 255 0
0.22718847 0.39381039 0.9606812 0 255 0
0.2272512 0.39386171 0.95968747 0 255 0
0.22731391 0.39391306 0.95869374 0 255 0
0.22737664 0.39396438 0.95770001 0 255 0
0.22743934 0.39401573 0.95670629 0 255 0
0.22694299 0.39322719 0.95572996 0 255 0
0.22700557 0.39327842 0.95473814 0 255 0
0.22706819 0.39332965 0.95374626 0 255 0
0.22713077 0.39338091 0.95275438 0 255 0
0.22719339 0.39343214 0.9517625 0 255 0
0.22725597 0.39348337 0.95077062 0 255 0
0.22787839 0.39437506 0.94975007 0 255 0
0.2273812 0.39358583 0.94878685 0 255 0
0.22744378 0.39363709 0.94779497 0 255 0
0.2275064 0.39368832 0.94680309 0 255 0
0.22756898 0.39373955 0.94581127 0 255 0
0.2276316 0.39379078 0.94481939 0 255 0
0.22769421 0.39384201 0.94382751 0 255 0
0.2277568 0.39389327 0.94283563 0 255 0
0.22781941 0.3939445 0.94184375 0 255 0
0.227882 0.39399573 0.94085187 0 255 0
0.22794461 0.39404696 0.93985999 0 255 0
0.22856832 0.39493969 0.93881899 0 255 0
0.22796354 0.39318106 0.96069765 0 255 0
0.22802624 0.39323241 0.95970386 0 255 0
0.22808897 0.39328372 0.95871013 0 255 0
0.22815168 0.39333507 0.95771641 0 255 0
0.22821441 0.39338639 0.95672268 0 255 0
0.22771657 0.39259905 0.95574635 0 255 0
0.22777918 0.39265028 0.95475447 0 255 0
0.22784176 0.39270151 0.95376259 0 255 0
0.22790438 0.39275274 0.95277077 0 255 0
0.22796696 0.392804 0.95177889 0 255 0
0.22802958 0.39285523 0.95078701 0 255 0
0.22865343 0.39374572 0.94976652 0 255 0
0.22815478 0.39295769 0.94880325 0 255 0
0.22821739 0.39300895 0.94781137 0 255 0
0.22827998 0.39306018 0.94681948 0 255 0
0.22834259 0.39311141 0.9458276 0 255 0
0.22840521 0.39316264 0.94483572 0 255 0
0.22846779 0.39321387 0.9438439 0 255 0
0.22853041 0.39326513 0.94285202 0 255 0
0.22859299 0.39331636 0.94186014 0 255 0
0.22865561 0.39336759 0.94086826 0 255 0
0.22871819 0.39341882 0.93987638 0 255 0
0.22878081 0.39347005 0.9388845 0 255 0
0.22867584 0.3925004 0.96170777 0 255 0
0.22873858 0.39255175 0.96071404 0 255 0
0.22880128 0.39260307 0.95972031 0 255 0
0.22886401 0.39265439 0.95872653 0 255 0
0.22892672 0.39270574 0.9577328 0 255 0
0.22898945 0.39275706 0.95673907 0 255 0
0.22849017 0.3919709 0.95576274 0 255 0
0.22855276 0.39202213 0.95477086 0 255 0
0.22861537 0.39207336 0.95377898 0 255 0
0.22867796 0.39212459 0.9527871 0 255 0
0.22874057 0.39217585 0.95179522 0 255 0
0.22880319 0.39222708 0.9508034 0 255 0
0.2294285 0.39311638 0.94978291 0 255 0
0.22892839 0.39232954 0.94881964 0 255 0
0.22899097 0.3923808 0.94782776 0 255 0
0.22905359 0.39243203 0.94683588 0 255 0
0.22911617 0.39248326 0.94584399 0 255 0
0.22917879 0.39253449 0.94485211 0 255 0
0.2292414 0.39258572 0.94386023 0 255 0
0.22930399 0.39263698 0.94286835 0 255 0
0.2293666 0.39268821 0.94187653 0 255 0
0.22942922 0.39273944 0.94088465 0 255 0
0.2294918 0.39279068 0.93989277 0 255 0
0.22955441 0.39284191 0.93890089 0 255 0
0.22938818 0.39181975 0.96271789 0 255 0
0.22945091 0.39187106 0.96172416 0 255 0
0.22951362 0.39192241 0.96073043 0 255 0
0.22957635 0.39197373 0.9597367 0 255 0
0.22963905 0.39202508 0.95874298 0 255 0
0.22970179 0.3920764 0.95774925 0 255 0
0.22920117 0.39129153 0.95677102 0 255 0
0.22926375 0.39134276 0.95577914 0 255 0
0.22988993 0.39223042 0.954768 0 255 0
0.22995266 0.39228174 0.95377427 0 255 0
0.23001537 0.39233306 0.95278054 0 255 0
0.2300781 0.39238441 0.95178682 0 255 0
0.23014084 0.39243573 0.95079303 0 255 0
0.23020354 0.39248708 0.9497993 0 255 0
0.23026627 0.3925384 0.94880557 0 255 0
0.23032898 0.39258975 0.94781184 0 255 0
0.2298272 0.39180389 0.94685227 0 255 0
0.22988978 0.39185512 0.94586039 0 255 0
0.22938761 0.39106897 0.94490635 0 255 0
0.22945008 0.39112011 0.94391638 0 255 0
0.22951257 0.39117125 0.94292635 0 255 0
0.22957507 0.39122239 0.94193637 0 255 0
0.23020279 0.3921113 0.94090104 0 255 0
0.23026541 0.39216253 0.93990916 0 255 0
0.23016325 0.39119044 0.96273434 0 255 0
0.23022595 0.39124176 0.96174061 0 255 0
0.23028865 0.39129308 0.96074682 0 255 0
0.23035139 0.39134443 0.9597531 0 255 0
0.23041412 0.39139575 0.95875937 0 255 0
0.23047683 0.3914471 0.95776564 0 255 0
0.22997475 0.39066336 0.95678735 0 255 0
0.23003736 0.39071462 0.95579553 0 255 0
0.230665 0.39160109 0.95478439 0 255 0
0.2307277 0.39165241 0.95379066 0 255 0
0.23079044 0.39170375 0.95279694 0 255 0
0.23085314 0.39175507 0.95180321 0 255 0
0.23091587 0.39180642 0.95080948 0 255 0
0.23097858 0.39185774 0.94981575 0 255 0
0.23047557 0.39107326 0.94885236 0 255 0
0.23053816 0.39112449 0.94786048 0 255 0
0.23060077 0.39117575 0.94686866 0 255 0
0.23066339 0.39122698 0.94587678 0 255 0
0.23015973 0.39044201 0.94492275 0 255 0
0.23022223 0.39049315 0.94393271 0 255 0
0.23028472 0.3905443 0.94294274 0 255 0
0.23034719 0.39059544 0.94195271 0 255 0
0.23093829 0.3905611 0.96275073 0 255 0
0.23100099 0.39061242 0.961757 0 255 0
0.23106372 0.39066377 0.96076328 0 255 0
0.23112646 0.39071509 0.95976955 0 255 0
0.23118916 0.39076641 0.95877576 0 255 0
0.23125187 0.39081776 0.95778203 0 255 0
0.2313146 0.39086908 0.9567883 0 255 0
0.23137733 0.39092043 0.95579457 0 255 0
0.23144004 0.39097175 0.95480084 0 255 0
0.23150277 0.3910231 0.95380712 0 255 0
0.23156548 0.39107442 0.95281333 0 255 0
0.23162821 0.39112577 0.9518196 0 255 0
0.23169091 0.39117709 0.95082587 0 255 0
0.23175365 0.39122841 0.94983214 0 255 0
0.23124915 0.39044511 0.94886875 0 255 0
0.23131177 0.39049634 0.94787687 0 255 0
0.23137438 0.3905476 0.94688499 0 255 0
0.23086938 0.38976389 0.94592911 0 255 0
0.23093188 0.38981503 0.94493908 0 255 0
0.23099437 0.38986617 0.94394904 0 255 0
0.23105684 0.38991731 0.94295907 0 255 0
0.23111933 0.38996845 0.94196904 0 255 0
0.23228034 0.39076391 0.96276289 0 255 0
0.2323432 0.39081535 0.96176732 0 255 0
0.23183876 0.39003444 0.96077967 0 255 0
0.2319015 0.39008576 0.95978594 0 255 0
0.2319642 0.39013711 0.95879221 0 255 0
0.23202693 0.39018843 0.95779848 0 255 0
0.23208964 0.39023978 0.95680469 0 255 0
0.23215237 0.39029109 0.95581096 0 255 0
0.23164713 0.38950956 0.95483637 0 255 0
0.23170975 0.38956079 0.95384449 0 255 0
0.23177236 0.38961202 0.95285261 0 255 0
0.23183495 0.38966325 0.95186079 0 255 0
0.23189756 0.38971451 0.9508689 0 255 0
0.23196015 0.38976574 0.94987702 0 255 0
0.23202276 0.38981697 0.94888514 0 255 0
0.23208538 0.3898682 0.94789326 0 255 0
0.23214796 0.38991943 0.94690138 0 255 0
0.23164153 0.38913694 0.94594544 0 255 0
0.23170403 0.38918808 0.94495541 0 255 0
0.23176652 0.38923922 0.94396544 0 255 0
0.23182899 0.38929036 0.9429754 0 255 0
0.23189148 0.3893415 0.94198543 0 255 0
0.23248836 0.38930246 0.96278358 0 255 0
0.2325511 0.38935378 0.96178979 0 255 0
0.23261383 0.3894051 0.96079606 0 255 0
0.23210773 0.38862523 0.9598121 0 255 0
0.23217034 0.38867646 0.95882022 0 255 0
0.23223293 0.38872769 0.9578284 0 255 0
0.23229554 0.38877895 0.95683652 0 255 0
0.23235813 0.38883018 0.95584464 0 255 0
0.23242074 0.38888142 0.95485276 0 255 0
0.23248336 0.38893265 0.95386088 0 255 0
0.23254594 0.38898388 0.952869 0 255 0
0.23260856 0.38903514 0.95187712 0 255 0
0.23267114 0.38908637 0.9508853 0 255 0
0.23273376 0.3891376 0.94989341 0 255 0
0.23279634 0.38918883 0.94890153 0 255 0
0.23285896 0.38924006 0.94790965 0 255 0
0.23292157 0.38929132 0.94691777 0 255 0
0.23241368 0.38850999 0.94596177 0 255 0
0.23247617 0.38856113 0.9449718 0 255 0
0.23253864 0.38861224 0.94398177 0 255 0
0.23317197 0.38949624 0.94295025 0 255 0
0.23326343 0.38867313 0.96279997 0 255 0
0.23275611 0.3878946 0.96181226 0 255 0
0.23281872 0.38794586 0.96082038 0 255 0
0.23288134 0.38799709 0.9598285 0 255 0
0.23294392 0.38804832 0.95883662 0 255 0
0.23300654 0.38809955 0.95784473 0 255 0
0.23306912 0.38815078 0.95685291 0 255 0
0.23313174 0.38820204 0.95586103 0 255 0
0.23319432 0.38825327 0.95486915 0 255 0
0.23325694 0.3883045 0.95387727 0 255 0
0.23389062 0.38918644 0.95286256 0 255 0
0.23395336 0.38923779 0.95186883 0 255 0
0.23401606 0.38928911 0.9508751 0 255 0
0.23350734 0.38850945 0.94990975 0 255 0
0.23356995 0.38856068 0.94891787 0 255 0
0.23363256 0.38861191 0.94792604 0 255 0
0.23369515 0.38866314 0.94693416 0 255 0
0.23318583 0.38788301 0.94597816 0 255 0
0.23324829 0.38793415 0.94498813 0 255 0
0.23331079 0.38798529 0.9439981 0 255 0
0.23394558 0.38886809 0.94296664 0 255 0
0.23352972 0.38726646 0.96182865 0 255 0
0.23359233 0.38731772 0.96083677 0 255 0
0.23365492 0.38736895 0.95984489 0 255 0
0.23371753 0.38742018 0.95885301 0 255 0
0.23378012 0.38747141 0.95786113 0 255 0
0.23384273 0.38752264 0.95686924 0 255 0
0.23390535 0.3875739 0.95587736 0 255 0
0.23454025 0.38845447 0.95486647 0 255 0
0.23460296 0.38850579 0.95387274 0 255 0
0.23466569 0.38855711 0.95287901 0 255 0
0.2347284 0.38860846 0.95188522 0 255 0
0.23479113 0.38865978 0.95089149 0 255 0
0.23485383 0.38871112 0.94989777 0 255 0
0.23434356 0.38793254 0.94893426 0 255 0
0.23440614 0.38798377 0.94794238 0 255 0
0.23446876 0.388035 0.9469505 0 255 0
0.23453134 0.38808626 0.94595867 0 255 0
0.23459396 0.38813749 0.94496679 0 255 0
0.23465657 0.38818872 0.94397491 0 255 0
0.23471916 0.38823995 0.94298303 0 255 0
0.23442852 0.3867408 0.95986128 0 255 0
0.23449111 0.38679203 0.9588694 0 255 0
0.23455372 0.38684326 0.95787752 0 255 0
0.23461631 0.38689449 0.95688564 0 255 0
0.23467892 0.38694575 0.95589375 0 255 0
0.23531529 0.38782513 0.95488286 0 255 0
0.235378 0.38787648 0.95388913 0 255 0
0.23544073 0.3879278 0.9528954 0 255 0
0.23550344 0.38797912 0.95190167 0 255 0
0.23499194 0.38720194 0.95093441 0 255 0
0.23505455 0.38725317 0.94994253 0 255 0
0.23454264 0.38647565 0.94898087 0 255 0
0.23460513 0.38652679 0.94799083 0 255 0
0.23466763 0.38657793 0.94700086 0 255 0
0.23473009 0.38662907 0.94601083 0 255 0
0.23479259 0.38668022 0.94502079 0 255 0
0.23543015 0.38756058 0.9439913 0 255 0
0.23549277 0.38761181 0.94299942 0 255 0
0.2363514 0.38776568 0.9598583 0 255 0
0.23641422 0.38781708 0.95886272 0 255 0
0.23590219 0.38704181 0.9578805 0 255 0
0.23596489 0.38709313 0.95688677 0 255 0
0.23602763 0.38714448 0.95589304 0 255 0
0.23609033 0.3871958 0.95489925 0 255 0
0.23615307 0.38724715 0.95390552 0 255 0
0.23621577 0.38729846 0.95291179 0 255 0
0.2362785 0.38734981 0.95191807 0 255 0
0.23576555 0.38657376 0.9509508 0 255 0
0.23582813 0.38662502 0.94995892 0 255 0
0.23531479 0.3858487 0.9489972 0 255 0
0.23537728 0.38589984 0.94800723 0 255 0
0.23543975 0.38595098 0.94701719 0 255 0
0.23550224 0.38600212 0.94602716 0 255 0
0.23556474 0.38605326 0.94503719 0 255 0
0.23620376 0.38693243 0.94400764 0 255 0
0.23626634 0.38698366 0.94301581 0 255 0
0.23690569 0.38786313 0.94198066 0 255 0
0.23696843 0.38791445 0.94098693 0 255 0
0.2371279 0.38713515 0.95987475 0 255 0
0.23719072 0.38718659 0.95887911 0 255 0
0.23725358 0.38723803 0.95788354 0 255 0
0.2373164 0.38728943 0.95688796 0 255 0
0.23737925 0.38734087 0.95589232 0 255 0
0.23686537 0.38656649 0.9549157 0 255 0
0.23692811 0.38661781 0.95392197 0 255 0
0.23699084 0.38666913 0.95292819 0 255 0
0.23705354 0.38672048 0.95193446 0 255 0
0.23711628 0.3867718 0.95094073 0 255 0
0.23660174 0.38599688 0.94997525 0 255 0
0.23666432 0.38604811 0.94898343 0 255 0
0.23672694 0.38609934 0.94799155 0 255 0
0.23678955 0.38615057 0.94699967 0 255 0
0.23685214 0.38620183 0.94600779 0 255 0
0.23691475 0.38625306 0.94501591 0 255 0
0.23697734 0.38630429 0.94402403 0 255 0
0.23703995 0.38635552 0.94303215 0 255 0
0.23710254 0.38640675 0.94204026 0 255 0
0.23716515 0.38645801 0.94104844 0 255 0
0.23720139 0.38557783 0.96188825 0 255 0
0.23726413 0.38562915 0.96089453 0 255 0
0.23732683 0.3856805 0.9599008 0 255 0
0.23796722 0.38655609 0.95889556 0 255 0
0.23803008 0.3866075 0.95789999 0 255 0
0.2380929 0.38665894 0.95690435 0 255 0
0.23815575 0.38671038 0.95590878 0 255 0
0.23821858 0.38676178 0.95491314 0 255 0
0.23828143 0.38681322 0.95391756 0 255 0
0.23776588 0.38603982 0.95294464 0 255 0
0.23782858 0.38609114 0.95195091 0 255 0
0.23731273 0.38531747 0.95098352 0 255 0
0.23737532 0.38536873 0.94999164 0 255 0
0.23743793 0.38541996 0.94899976 0 255 0
0.23750052 0.38547119 0.94800794 0 255 0
0.23756313 0.38552243 0.94701606 0 255 0
0.23762575 0.38557369 0.94602418 0 255 0
0.23768833 0.38562492 0.9450323 0 255 0
0.23775095 0.38567615 0.94404042 0 255 0
0.23781353 0.38572738 0.94304854 0 255 0
0.23787615 0.38577861 0.94205666 0 255 0
0.23793873 0.38582987 0.94106477 0 255 0
0.23797643 0.38494849 0.96190464 0 255 0
0.23803917 0.38499984 0.96091092 0 255 0
0.23810187 0.38505116 0.95991719 0 255 0
0.23874375 0.38592556 0.95891201 0 255 0
0.23880658 0.385977 0.95791644 0 255 0
0.2388694 0.38602844 0.9569208 0 255 0
0.23893225 0.38607988 0.95592523 0 255 0
0.23899508 0.38613129 0.95492959 0 255 0
0.23905793 0.38618273 0.95393401 0 255 0
0.23854092 0.38541049 0.95296103 0 255 0
0.23802373 0.3846381 0.9519918 0 255 0
0.23808631 0.38468933 0.95099992 0 255 0
0.23814893 0.38474059 0.95000803 0 255 0
0.23821154 0.38479182 0.94901615 0 255 0
0.23827413 0.38484305 0.94802427 0 255 0
0.23891723 0.38571849 0.9469986 0 255 0
0.23897997 0.38576981 0.94600487 0 255 0
0.23904267 0.38582116 0.94501114 0 255 0
0.2391054 0.38587248 0.94401741 0 255 0
0.23916814 0.38592383 0.94302362 0 255 0
0.2392689 0.38508937 0.96291089 0 255 0
0.2387515 0.38431919 0.9619211 0 255 0
0.2388142 0.38437051 0.96092737 0 255 0
0.23887694 0.38442186 0.95993364 0 255 0
0.23952025 0.38529506 0.95892847 0 255 0
0.23958308 0.3853465 0.95793283 0 255 0
0.23964593 0.38539794 0.95693725 0 255 0
0.23970875 0.38544935 0.95594168 0 255 0
0.23919055 0.38467851 0.95496494 0 255 0
0.23925325 0.38472983 0.95397115 0 255 0
0.23931599 0.38478115 0.95297742 0 255 0
0.23879731 0.38400996 0.95200819 0 255 0
0.23885992 0.38406119 0.95101631 0 255 0
0.23892251 0.38411245 0.95002443 0 255 0
0.23898512 0.38416368 0.94903255 0 255 0
0.23962957 0.38503784 0.94800878 0 255 0
0.2396923 0.38508916 0.94701499 0 255 0
0.239755 0.38514051 0.94602126 0 255 0
0.23981774 0.38519183 0.94502753 0 255 0
0.23988047 0.38524315 0.9440338 0 255 0
0.23994318 0.3852945 0.94304007 0 255 0
0.23998255 0.38440743 0.96392292 0 255 0
0.2400454 0.38445884 0.96292734 0 255 0
0.24010822 0.38451028 0.96193171 0 255 0
0.24017107 0.38456172 0.96093613 0 255 0
0.2402339 0.38461313 0.95994049 0 255 0
0.24029675 0.38466457 0.95894492 0 255 0
0.24035957 0.384716 0.95794928 0 255 0
0.24042243 0.38476741 0.9569537 0 255 0
0.24048525 0.38481885 0.95595807 0 255 0
0.23996559 0.38404918 0.95498133 0 255 0
0.24002829 0.38410053 0.9539876 0 255 0
0.2395083 0.38333058 0.9530164 0 255 0
0.23957092 0.38338181 0.95202452 0 255 0
0.2396335 0.38343304 0.9510327 0 255 0
0.23969612 0.3834843 0.95004082 0 255 0
0.2397587 0.38353553 0.94904894 0 255 0
0.24040464 0.3844085 0.94802517 0 255 0
0.24046734 0.38445982 0.94703144 0 255 0
0.24053007 0.38451117 0.94603765 0 255 0
0.24059278 0.38456249 0.94504392 0 255 0
0.24065551 0.38461384 0.94405019 0 255 0
0.24071822 0.38466516 0.94305646 0 255 0
0.24109015 0.38438991 0.96792722 0 255 0
0.24057055 0.38362262 0.96692616 0 255 0
0.2406334 0.38367406 0.96593058 0 255 0
0.24069622 0.38372549 0.96493495 0 255 0
0.24075907 0.3837769 0.96393937 0 255 0
0.2408219 0.38382834 0.96294373 0 255 0
0.24088475 0.38387978 0.96194816 0 255 0
0.24094757 0.38393119 0.96095252 0 255 0
0.2410104 0.38398263 0.95995694 0 255 0
0.24107325 0.38403407 0.95896137 0 255 0
0.2411361 0.38408548 0.95796573 0 255 0
0.24119893 0.38413692 0.95697016 0 255 0
0.24067792 0.38336852 0.95599151 0 255 0
0.24015671 0.38259998 0.95501655 0 255 0
0.2402193 0.38265121 0.95402467 0 255 0
0.24028191 0.38270244 0.95303279 0 255 0
0.24034449 0.38275367 0.95204091 0 255 0
0.24040711 0.3828049 0.95104903 0 255 0
0.24046972 0.38285616 0.95005715 0 255 0
0.24053231 0.38290739 0.94906533 0 255 0
0.24117967 0.38377917 0.94804156 0 255 0
0.24124241 0.38383052 0.94704783 0 255 0
0.24130511 0.38388184 0.9460541 0 255 0
0.24136785 0.38393319 0.94506037 0 255 0
0.24143055 0.38398451 0.94406658 0 255 0
0.24149328 0.38403586 0.94307286 0 255 0
0.24115855 0.38283783 0.9699294 0 255 0
0.24122137 0.38288927 0.96893382 0 255 0
0.24128422 0.38294068 0.96793818 0 255 0
0.24134704 0.38299212 0.96694261 0 255 0
0.2414099 0.38304356 0.96594697 0 255 0
0.24147272 0.38309497 0.9649514 0 255 0
0.24153557 0.38314641 0.96395582 0 255 0
0.2415984 0.38319784 0.96296018 0 255 0
0.24166125 0.38324925 0.96196461 0 255 0
0.24172407 0.38330069 0.96096897 0 255 0
0.24120209 0.38253388 0.95998281 0 255 0
0.24126479 0.3825852 0.95898908 0 255 0
0.2419126 0.38345498 0.95798218 0 255 0
0.24139026 0.38268787 0.95700163 0 255 0
0.24145296 0.38273919 0.9560079 0 255 0
0.24093029 0.38197181 0.95503294 0 255 0
0.24040735 0.38120425 0.95406169 0 255 0
0.24046984 0.38125539 0.95307165 0 255 0
0.24053234 0.38130653 0.95208168 0 255 0
0.24118069 0.38217676 0.95106542 0 255 0
0.2412433 0.38222799 0.95007354 0 255 0
0.24130592 0.38227925 0.94908166 0 255 0
0.24195471 0.38314986 0.94805795 0 255 0
0.24201745 0.38320118 0.94706422 0 255 0
0.24208015 0.38325253 0.94607049 0 255 0
0.24155632 0.38248417 0.9451142 0 255 0
0.24161893 0.38253543 0.94412231 0 255 0
0.24193504 0.38220733 0.96994585 0 255 0
0.24199787 0.38225874 0.96895027 0 255 0
0.24206072 0.38231018 0.96795464 0 255 0
0.24212354 0.38236162 0.96695906 0 255 0
0.2421864 0.38241303 0.96596342 0 255 0
0.24224922 0.38246447 0.96496785 0 255 0
0.24231207 0.38251591 0.96397221 0 255 0
0.2423749 0.38256732 0.96297663 0 255 0
0.24243775 0.38261876 0.96198106 0 255 0
0.24250057 0.38267019 0.96098542 0 255 0
0.24197713 0.38190454 0.95999926 0 255 0
0.24203986 0.38195586 0.95900548 0 255 0
0.2426891 0.38282448 0.95799863 0 255 0
0.2421653 0.38205853 0.95701802 0 255 0
0.242228 0.38210988 0.95602429 0 255 0
0.2417039 0.38134366 0.95504928 0 255 0
0.2411795 0.3805773 0.95407802 0 255 0
0.24124199 0.38062844 0.95308805 0 255 0
0.24130446 0.38067958 0.95209801 0 255 0
0.2419543 0.38154861 0.95108181 0 255 0
0.24201691 0.38159984 0.95008993 0 255 0
0.2420795 0.3816511 0.94909805 0 255 0
0.24214211 0.38170233 0.94810617 0 255 0
0.24279249 0.38257185 0.94708067 0 255 0
0.24226731 0.38180479 0.94612241 0 255 0
0.24232993 0.38185602 0.94513059 0 255 0
0.24239251 0.38190728 0.94413871 0 255 0
0.24258587 0.38147396 0.97195351 0 255 0
0.24264872 0.3815254 0.97095788 0 255 0
0.24271154 0.38157681 0.9699623 0 255 0
0.2427744 0.38162825 0.96896666 0 255 0
0.24283722 0.38167968 0.96797109 0 255 0
0.24290004 0.38173112 0.96697545 0 255 0
0.2429629 0.38178253 0.96597987 0 255 0
0.24302575 0.38183397 0.9649843 0 255 0
0.24308857 0.38188538 0.96398866 0 255 0
0.2431514 0.38193682 0.96299309 0 255 0
0.24321425 0.38198826 0.96199745 0 255 0
0.24327707 0.3820397 0.96100187 0 255 0
0.24275219 0.38127521 0.96001565 0 255 0
0.2428149 0.38132656 0.95902193 0 255 0
0.24287763 0.38137788 0.9580282 0 255 0
0.24294034 0.38142923 0.95703447 0 255 0
0.24300307 0.38148054 0.95604068 0 255 0
0.24247748 0.38071552 0.95506567 0 255 0
0.24195164 0.37995031 0.95409435 0 255 0
0.24201414 0.38000146 0.95310438 0 255 0
0.24207661 0.3800526 0.95211434 0 255 0
0.24272791 0.38092047 0.9510982 0 255 0
0.24279049 0.3809717 0.95010632 0 255 0
0.24285311 0.38102296 0.94911444 0 255 0
0.24291569 0.38107419 0.94812256 0 255 0
0.24356756 0.38194254 0.94709706 0 255 0
0.24304089 0.38117665 0.9461388 0 255 0
0.2431035 0.38122788 0.94514692 0 255 0
0.24316612 0.38127914 0.94415504 0 255 0
0.24336237 0.38084346 0.97196996 0 255 0
0.24342522 0.3808949 0.97097433 0 255 0
0.24348804 0.38094631 0.96997875 0 255 0
0.2435509 0.38099775 0.96898311 0 255 0
0.24361372 0.38104919 0.96798754 0 255 0
0.24367657 0.38110059 0.9669919 0 255 0
0.2437394 0.38115203 0.96599633 0 255 0
0.24380225 0.38120347 0.96500069 0 255 0
0.24386507 0.38125488 0.96400511 0 255 0
0.24392793 0.38130632 0.96300954 0 255 0
0.24399075 0.38135776 0.9620139 0 255 0
0.24405357 0.38140917 0.96101832 0 255 0
0.24352723 0.3806459 0.96003205 0 255 0
0.24358997 0.38069722 0.95903832 0 255 0
0.24365267 0.38074854 0.95804459 0 255 0
0.24371541 0.38079989 0.95705086 0 255 0
0.24377811 0.38085121 0.95605713 0 255 0
0.24325109 0.38008738 0.95508206 0 255 0
0.24331367 0.38013864 0.95409018 0 255 0
0.24337628 0.38018987 0.9530983 0 255 0
0.24343887 0.3802411 0.95210642 0 255 0
0.24350148 0.38029233 0.95111454 0 255 0
0.2435641 0.38034356 0.95012271 0 255 0
0.24362668 0.38039482 0.94913083 0 255 0
0.24427986 0.38126189 0.94810718 0 255 0
0.2443426 0.3813132 0.94711345 0 255 0
0.2444053 0.38136455 0.94611973 0 255 0
0.24446803 0.38141587 0.945126 0 255 0
0.24413887 0.38021296 0.97198635 0 255 0
0.24420172 0.38026437 0.97099078 0 255 0
0.24367508 0.37950325 0.96998584 0 255 0
0.24373779 0.37955457 0.96899211 0 255 0
0.24439022 0.38041866 0.96800399 0 255 0
0.24445307 0.3804701 0.96700835 0 255 0
0.2445159 0.38052154 0.96601278 0 255 0
0.24457875 0.38057294 0.96501714 0 255 0
0.24464157 0.38062438 0.96402156 0 255 0
0.24470443 0.38067582 0.96302593 0 255 0
0.24476725 0.38072723 0.96203035 0 255 0
0.2448301 0.38077867 0.96103477 0 255 0
0.24430227 0.38001657 0.9600485 0 255 0
0.24436501 0.38006788 0.95905471 0 255 0
0.24442771 0.38011923 0.95806098 0 255 0
0.24449044 0.38017055 0.95706725 0 255 0
0.24455315 0.3802219 0.95607352 0 255 0
0.24402466 0.37945923 0.95509845 0 255 0
0.24408728 0.37951049 0.95410657 0 255 0
0.24414989 0.37956172 0.95311469 0 255 0
0.24421248 0.37961295 0.95212281 0 255 0
0.24427509 0.37966418 0.95113093 0 255 0
0.24433768 0.37971541 0.95013905 0 255 0
0.24440029 0.37976667 0.94914716 0 255 0
0.24505493 0.38063255 0.94812363 0 255 0
0.24511763 0.3806839 0.94712985 0 255 0
0.24518037 0.38073522 0.94613612 0 255 0
0.2449154 0.37958243 0.9720028 0 255 0
0.24497822 0.37963387 0.97100723 0 255 0
0.24445012 0.37887391 0.97000223 0 255 0
0.24451286 0.37892523 0.96900851 0 255 0
0.24516672 0.37978816 0.96802038 0 255 0
0.24522957 0.3798396 0.9670248 0 255 0
0.2452924 0.37989101 0.96602917 0 255 0
0.24535525 0.37994245 0.96503359 0 255 0
0.24541807 0.37999389 0.96403801 0 255 0
0.24548092 0.38004529 0.96304238 0 255 0
0.24554375 0.38009673 0.9620468 0 255 0
0.2456066 0.38014817 0.96105117 0 255 0
0.24507734 0.37938723 0.96006489 0 255 0
0.24514005 0.37943858 0.95907116 0 255 0
0.24520278 0.3794899 0.95807743 0 255 0
0.24526548 0.37954125 0.95708364 0 255 0
0.24532822 0.37959257 0.95608991 0 255 0
0.24479827 0.37883109 0.95511484 0 255 0
0.24486086 0.37888232 0.95412296 0 255 0
0.24492347 0.37893358 0.95313108 0 255 0
0.24498609 0.37898481 0.9521392 0 255 0
0.24504867 0.37903604 0.95114732 0 255 0
0.24511129 0.37908727 0.95015544 0 255 0
0.24576727 0.37995189 0.94913375 0 255 0
0.24582997 0.38000324 0.94814003 0 255 0
0.2458927 0.38005456 0.9471463 0 255 0
0.24536169 0.37929222 0.94618797 0 255 0
0.2454243 0.37934345 0.94519609 0 255 0
0.24562904 0.3789005 0.97301483 0 255 0
0.2456919 0.37895194 0.97201926 0 255 0
0.24575472 0.37900338 0.97102368 0 255 0
0.24581757 0.37905478 0.97002804 0 255 0
0.2458804 0.37910622 0.96903247 0 255 0
0.24594325 0.37915766 0.96803683 0 255 0
0.24600607 0.37920907 0.96704125 0 255 0
0.24606892 0.37926051 0.96604562 0 255 0
0.24613175 0.37931195 0.96505004 0 255 0
0.24619457 0.37936336 0.96405441 0 255 0
0.24625742 0.3794148 0.96305883 0 255 0
0.24632028 0.37946624 0.96206325 0 255 0
0.2463831 0.37951764 0.96106762 0 255 0
0.24585238 0.37875792 0.96008128 0 255 0
0.24591511 0.37880924 0.95908755 0 255 0
0.24597782 0.37886059 0.95809382 0 255 0
0.24604055 0.37891191 0.95710009 0 255 0
0.24610326 0.37896323 0.95610636 0 255 0
0.24557188 0.37820294 0.95513117 0 255 0
0.24563447 0.37825418 0.95413929 0 255 0
0.24569708 0.37830544 0.95314747 0 255 0
0.24575967 0.37835667 0.95215559 0 255 0
0.24582228 0.3784079 0.95116371 0 255 0
0.24588487 0.37845913 0.95017183 0 255 0
0.2465423 0.37932256 0.94915015 0 255 0
0.24660501 0.37937391 0.94815642 0 255 0
0.24666774 0.37942523 0.94716269 0 255 0
0.24613529 0.37866408 0.9462043 0 255 0
0.24619788 0.37871531 0.94521242 0 255 0
0.24653122 0.37837285 0.97104007 0 255 0
0.24659407 0.37842429 0.97004449 0 255 0
0.24665689 0.37847573 0.96904886 0 255 0
0.24671975 0.37852713 0.96805328 0 255 0
0.24678257 0.37857857 0.9670577 0 255 0
0.24684542 0.37863001 0.96606207 0 255 0
0.24690825 0.37868142 0.96506649 0 255 0
0.2469711 0.37873286 0.96407086 0 255 0
0.24703392 0.3787843 0.96307528 0 255 0
0.24709678 0.37883571 0.96207964 0 255 0
0.2471596 0.37888715 0.96108407 0 255 0
0.24662742 0.37812859 0.96009767 0 255 0
0.24669015 0.37817991 0.95910394 0 255 0
0.24675286 0.37823126 0.95811021 0 255 0
0.24681559 0.37828258 0.95711648 0 255 0
0.2468783 0.37833393 0.95612276 0 255 0
0.24634546 0.3775748 0.95514756 0 255 0
0.24640808 0.37762603 0.95415568 0 255 0
0.24647066 0.37767729 0.9531638 0 255 0
0.24653327 0.37772852 0.95217192 0 255 0
0.24659586 0.37777975 0.9511801 0 255 0
0.24665847 0.37783098 0.95018822 0 255 0
0.24731734 0.37869325 0.9491666 0 255 0
0.24738008 0.37874457 0.94817287 0 255 0
0.24744278 0.37879592 0.94717908 0 255 0
0.24750552 0.37884724 0.94618535 0 255 0
0.24737057 0.37779379 0.97006094 0 255 0
0.24743339 0.3778452 0.96906531 0 255 0
0.24749625 0.37789664 0.96806973 0 255 0
0.24755907 0.37794808 0.9670741 0 255 0
0.24762192 0.37799951 0.96607852 0 255 0
0.24768475 0.37805092 0.96508294 0 255 0
0.2477476 0.37810236 0.96408731 0 255 0
0.24781042 0.37815377 0.96309173 0 255 0
0.24787328 0.37820521 0.9620961 0 255 0
0.2479361 0.37825665 0.96110052 0 255 0
0.24740249 0.37749925 0.96011412 0 255 0
0.24746519 0.3775506 0.95912039 0 255 0
0.24752793 0.37760192 0.95812666 0 255 0
0.24759063 0.37765327 0.95713288 0 255 0
0.24765337 0.37770459 0.95613915 0 255 0
0.24771607 0.37775591 0.95514542 0 255 0
0.24718165 0.37699789 0.95417207 0 255 0
0.24724427 0.37704915 0.95318019 0 255 0
0.24790424 0.37790993 0.95216423 0 255 0
0.24796697 0.37796125 0.95117044 0 255 0
0.24802968 0.3780126 0.95017672 0 255 0
0.24809241 0.37806392 0.94918299 0 255 0
0.24815512 0.37811527 0.94818926 0 255 0
0.24761987 0.37735656 0.94722897 0 255 0
0.24768248 0.37740779 0.94623709 0 255 0
0.24814707 0.37716329 0.9700774 0 255 0
0.24820992 0.3772147 0.96908176 0 255 0
0.24827275 0.37726614 0.96808618 0 255 0
0.24833557 0.37731758 0.96709055 0 255 0
0.24839842 0.37736899 0.96609497 0 255 0
0.24846128 0.37742043 0.96509933 0 255 0
0.2485241 0.37747186 0.96410376 0 255 0
0.24858692 0.37752327 0.96310818 0 255 0
0.24864978 0.37757471 0.96211255 0 255 0
0.2487126 0.37762615 0.96111697 0 255 0
0.24817753 0.37686995 0.96013051 0 255 0
0.24824026 0.37692127 0.95913678 0 255 0
0.24830297 0.37697262 0.95814306 0 255 0
0.2483657 0.37702394 0.95714933 0 255 0
0.2484284 0.37707525 0.95615554 0 255 0
0.24849114 0.3771266 0.95516181 0 255 0
0.24855384 0.37717792 0.95416808 0 255 0
0.24801785 0.376421 0.95319659 0 255 0
0.24867928 0.37728059 0.95218062 0 255 0
0.24874201 0.37733194 0.9511869 0 255 0
0.24880472 0.37738326 0.95019311 0 255 0
0.24886745 0.37743458 0.94919938 0 255 0
0.24893016 0.37748593 0.94820565 0 255 0
0.24839348 0.37672842 0.94724536 0 255 0
0.24845606 0.37677965 0.94625348 0 255 0
0.24892357 0.37653276 0.97009379 0 255 0
0.24898642 0.3765842 0.96909821 0 255 0
0.24904925 0.37663564 0.96810263 0 255 0
0.2491121 0.37668705 0.967107 0 255 0
0.24917492 0.37673849 0.96611142 0 255 0
0.24923778 0.37678993 0.96511579 0 255 0
0.2493006 0.37684134 0.96412021 0 255 0
0.24936345 0.37689278 0.96312457 0 255 0
0.24942628 0.37694421 0.962129 0 255 0
0.24948913 0.37699562 0.96113336 0 255 0
0.24955195 0.37704706 0.96013778 0 255 0
0.2496148 0.3770985 0.95914221 0 255 0
0.24967763 0.37714991 0.95814657 0 255 0
0.24974048 0.37720135 0.957151 0 255 0
0.2498033 0.37725279 0.95615536 0 255 0
0.24926618 0.37649727 0.95517826 0 255 0
0.24932891 0.37654862 0.95418447 0 255 0
0.24879146 0.37579283 0.95321298 0 255 0
0.24945435 0.37665126 0.95219702 0 255 0
0.24951705 0.37670261 0.95120329 0 255 0
0.25018033 0.37756136 0.95018178 0 255 0
0.25024316 0.37761277 0.94918615 0 255 0
0.25030601 0.37766421 0.94819057 0 255 0
0.25036883 0.37771565 0.94719493 0 255 0
0.24976292 0.3759537 0.96911466 0 255 0
0.24982575 0.37600511 0.96811903 0 255 0
0.2498886 0.37605655 0.96712345 0 255 0
0.24995142 0.37610799 0.96612781 0 255 0
0.25001428 0.3761594 0.96513224 0 255 0
0.2500771 0.37621084 0.96413666 0 255 0
0.25013995 0.37626228 0.96314102 0 255 0
0.25020278 0.37631369 0.96214545 0 255 0
0.25026563 0.37636513 0.96114981 0 255 0
0.25032845 0.37641656 0.96015424 0 255 0
0.2503913 0.37646797 0.9591586 0 255 0
0.25045413 0.37651941 0.95816302 0 255 0
0.25051698 0.37657085 0.95716739 0 255 0
0.2505798 0.37662226 0.95617181 0 255 0
0.25004122 0.37586796 0.95519465 0 255 0
0.25089401 0.37687942 0.95119381 0 255 0
0.25095683 0.37693083 0.95019817 0 255 0
0.25101969 0.37698227 0.9492026 0 255 0
0.25060225 0.37537462 0.96813548 0 255 0
0.2506651 0.37542605 0.9671399 0 255 0
0.25132951 0.37628102 0.96614635 0 255 0
0.25139245 0.37633255 0.96514893 0 255 0
0.2508536 0.37558034 0.96415305 0 255 0
0.25091645 0.37563175 0.96315747 0 255 0
0.25097927 0.37568319 0.9621619 0 255 0
0.25104213 0.37573463 0.96116626 0 255 0
0.25110495 0.37578604 0.96017069 0 255 0
0.2511678 0.37583748 0.95917505 0 255 0
0.25123063 0.37588891 0.95817947 0 255 0
0.25129348 0.37594032 0.95718384 0 255 0
0.2513563 0.37599176 0.95618826 0 255 0
0.25148198 0.37609461 0.95419705 0 255 0
0.25154483 0.37614605 0.95320147 0 255 0
0.25160766 0.37619749 0.95220584 0 255 0
0.25167051 0.3762489 0.95121026 0 255 0
0.25173333 0.37630033 0.95021462 0 255 0
0.25179619 0.37635177 0.94921905 0 255 0
0.252269 0.37609029 0.97316033 0 255 0
0.25233206 0.37614191 0.972161 0 255 0
0.25252128 0.37629676 0.969163 0 255 0
0.25258434 0.37634838 0.96816367 0 255 0
0.2520445 0.3755978 0.96716034 0 255 0
0.25210747 0.37564933 0.96616286 0 255 0
0.25217041 0.37570086 0.96516538 0 255 0
0.2516301 0.37494984 0.9641695 0 255 0
0.25169295 0.37500125 0.96317393 0 255 0
0.2517558 0.37505269 0.96217829 0 255 0
0.25181863 0.3751041 0.96118271 0 255 0
0.25188145 0.37515554 0.96018708 0 255 0
0.2519443 0.37520698 0.9591915 0 255 0
0.25200713 0.37525842 0.95819592 0 255 0
0.25206998 0.37530982 0.95720029 0 255 0
0.2521328 0.37536126 0.95620471 0 255 0
0.25219566 0.37541267 0.95520908 0 255 0
0.25225848 0.37546411 0.9542135 0 255 0
0.25232133 0.37551555 0.95321786 0 255 0
0.25238416 0.37556699 0.95222229 0 255 0
0.25244701 0.3756184 0.95122665 0 255 0
0.25250983 0.37566984 0.95023108 0 255 0
0.25257269 0.37572125 0.9492355 0 255 0
0.25298533 0.37540579 0.97417617 0 255 0
0.25304839 0.37545741 0.97317684 0 255 0
0.25311148 0.37550902 0.97217751 0 255 0
0.25317454 0.37556067 0.97117817 0 255 0
0.25323761 0.37561229 0.97017884 0 255 0
0.2533007 0.37566391 0.96917945 0 255 0
0.25336376 0.37571552 0.96818018 0 255 0
0.25282246 0.37496611 0.9671768 0 255 0
0.25288543 0.37501764 0.96617931 0 255 0
0.25294837 0.37506917 0.96518183 0 255 0
0.25240663 0.37431931 0.96418595 0 255 0
0.25246945 0.37437075 0.96319038 0 255 0
0.25313726 0.37522376 0.96218944 0 255 0
0.25259513 0.3744736 0.96119916 0 255 0
0.25265798 0.37452504 0.96020353 0 255 0
0.2527208 0.37457648 0.95920795 0 255 0
0.25278366 0.37462789 0.95821232 0 255 0
0.25284648 0.37467933 0.95721674 0 255 0
0.25290933 0.37473074 0.9562211 0 255 0
0.25297216 0.37478217 0.95522553 0 255 0
0.25303498 0.37483361 0.95422995 0 255 0
0.25309783 0.37488505 0.95323431 0 255 0
0.25316066 0.37493646 0.95223874 0 255 0
0.25322351 0.3749879 0.9512431 0 255 0
0.25328633 0.37503931 0.95024753 0 255 0
0.25334918 0.37509075 0.94925189 0 255 0
0.25382781 0.37482455 0.97319329 0 255 0
0.25389087 0.37487617 0.97219396 0 255 0
0.25395396 0.37492779 0.97119462 0 255 0
0.25401703 0.37497941 0.97019529 0 255 0
0.25408009 0.37503102 0.96919596 0 255 0
0.25353748 0.3742829 0.96819073 0 255 0
0.25360042 0.37433442 0.96719325 0 255 0
0.25366339 0.37438595 0.96619576 0 255 0
0.25372633 0.37443748 0.96519834 0 255 0
0.25378931 0.37448901 0.96420085 0 255 0
0.25385225 0.37454054 0.96320337 0 255 0
0.25391519 0.37459207 0.96220595 0 255 0
0.25337163 0.3738431 0.96121562 0 255 0
0.25343448 0.37389454 0.96021998 0 255 0
0.2534973 0.37394595 0.9592244 0 255 0
0.25356016 0.37399739 0.95822877 0 255 0
0.25362298 0.37404883 0.95723319 0 255 0
0.25368583 0.37410024 0.95623755 0 255 0
0.25374866 0.37415168 0.95524198 0 255 0
0.25381151 0.37420312 0.95424634 0 255 0
0.25387433 0.37425452 0.95325077 0 255 0
0.25393718 0.37430596 0.95225513 0 255 0
0.25400001 0.3743574 0.95125955 0 255 0
0.25406286 0.37440881 0.95026398 0 255 0
0.25412568 0.37446025 0.94926834 0 255 0
0.25418854 0.37451169 0.94827276 0 255 0
0.25460723 0.37419167 0.9732098 0 255 0
0.25406361 0.37344512 0.97219706 0 255 0
0.25412658 0.37349665 0.97119957 0 255 0
0.25418952 0.37354818 0.97020215 0 255 0
0.25485951 0.37439817 0.96921247 0 255 0
0.25431544 0.37365121 0.96820718 0 255 0
0.25437838 0.37370273 0.96720976 0 255 0
0.25444135 0.37375426 0.96621227 0 255 0
0.25450429 0.37380579 0.96521479 0 255 0
0.25456724 0.37385732 0.96421731 0 255 0
0.25463021 0.37390885 0.96321988 0 255 0
0.25469315 0.37396038 0.9622224 0 255 0
0.25414813 0.37321261 0.96123201 0 255 0
0.25421098 0.37326401 0.96023643 0 255 0
0.2542738 0.37331545 0.95924079 0 255 0
0.25433666 0.37336689 0.95824522 0 255 0
0.25439948 0.3734183 0.95724964 0 255 0
0.25446233 0.37346974 0.95625401 0 255 0
0.25452515 0.37352118 0.95525843 0 255 0
0.25458801 0.37357259 0.95426279 0 255 0
0.25465083 0.37362403 0.95326722 0 255 0
0.25471368 0.37367547 0.95227158 0 255 0
0.25477651 0.37372687 0.951276 0 255 0
0.25423008 0.37297797 0.95030802 0 255 0
0.25429279 0.37302932 0.94931424 0 255 0
0.25435552 0.37308064 0.94832051 0 255 0
0.25484157 0.37281343 0.97221351 0 255 0
0.25490451 0.37286496 0.97121608 0 255 0
0.25496748 0.37291649 0.9702186 0 255 0
0.25503042 0.37296802 0.96922112 0 255 0
0.2550934 0.37301955 0.96822369 0 255 0
0.25454763 0.3722735 0.96722209 0 255 0
0.25461045 0.37232494 0.96622646 0 255 0
0.25528225 0.3731741 0.96523124 0 255 0
0.2553452 0.37322563 0.96423382 0 255 0
0.25540817 0.37327716 0.96323633 0 255 0
0.25547111 0.37332869 0.96223885 0 255 0
0.25553408 0.37338021 0.96124136 0 255 0
0.25498748 0.37263352 0.96025288 0 255 0
0.25505033 0.37268496 0.95925725 0 255 0
0.25511315 0.37273636 0.95826167 0 255 0
0.25517598 0.3727878 0.95726603 0 255 0
0.25523883 0.37283924 0.95627046 0 255 0
0.25530165 0.37289065 0.95527482 0 255 0
0.25536451 0.37294209 0.95427924 0 255 0
0.25481698 0.37219465 0.9533056 0 255 0
0.25487968 0.372246 0.95231187 0 255 0
0.25494242 0.37229732 0.95131814 0 255 0
0.25500512 0.37234867 0.95032442 0 255 0
0.25506786 0.37239999 0.94933069 0 255 0
0.25513056 0.37245134 0.94833696 0 255 0
0.25561953 0.37218174 0.97223002 0 255 0
0.25568247 0.37223327 0.97123253 0 255 0
0.25574544 0.3722848 0.97023505 0 255 0
0.25580838 0.37233633 0.96923763 0 255 0
0.25587136 0.37238786 0.96824014 0 255 0
0.25532413 0.37164301 0.96723855 0 255 0
0.25538695 0.37169445 0.96624291 0 255 0
0.25606021 0.37254241 0.96524775 0 255 0
0.25612316 0.37259394 0.96425027 0 255 0
0.25618613 0.37264547 0.96325278 0 255 0
0.25624907 0.372697 0.96225536 0 255 0
0.25631204 0.37274852 0.96125787 0 255 0
0.25637498 0.37280005 0.96026039 0 255 0
0.25643793 0.37285158 0.95926291 0 255 0
0.25588965 0.37210587 0.95827812 0 255 0
0.25595251 0.37215731 0.95728248 0 255 0
0.25601533 0.37220871 0.95628691 0 255 0
0.25607818 0.37226015 0.95529127 0 255 0
0.25614101 0.37231159 0.95429569 0 255 0
0.25559202 0.37156534 0.95332205 0 255 0
0.25565472 0.37161666 0.95232832 0 255 0
0.25571746 0.37166801 0.95133454 0 255 0
0.25516802 0.3709214 0.95036834 0 255 0
0.25523064 0.37097263 0.94937646 0 255 0
0.25700852 0.3723447 0.97226 0 255 0
0.25646043 0.37160158 0.97124898 0 255 0
0.2565234 0.37165311 0.97025156 0 255 0
0.25658634 0.37170464 0.96925408 0 255 0
0.25664932 0.37175617 0.96825659 0 255 0
0.25671226 0.37180769 0.96725917 0 255 0
0.2567752 0.37185922 0.96626168 0 255 0
0.25683817 0.37191072 0.9652642 0 255 0
0.25690112 0.37196225 0.96426672 0 255 0
0.25696409 0.37201378 0.96326929 0 255 0
0.25702703 0.37206531 0.96227181 0 255 0
0.25709 0.37211683 0.96127433 0 255 0
0.25715294 0.37216836 0.96027684 0 255 0
0.25721589 0.37221989 0.95927942 0 255 0
0.25727886 0.37227142 0.95828193 0 255 0
0.25672901 0.37152681 0.95729893 0 255 0
0.25679183 0.37157822 0.95630336 0 255 0
0.25685468 0.37162966 0.95530772 0 255 0
0.25691751 0.37168106 0.95431215 0 255 0
0.25636706 0.37093601 0.95333844 0 255 0
0.25642979 0.37098736 0.95234472 0 255 0
0.2564925 0.37103868 0.95135099 0 255 0
0.25594163 0.37029326 0.95038474 0 255 0
0.25600421 0.37034449 0.94939286 0 255 0
0.25711247 0.37086684 0.9732604 0 255 0
0.25717545 0.37091836 0.97226298 0 255 0
0.25662577 0.37017629 0.97125381 0 255 0
0.25668862 0.37022772 0.97025824 0 255 0
0.25675145 0.37027913 0.9692626 0 255 0
0.25742725 0.37112448 0.9682731 0 255 0
0.25749022 0.371176 0.96727562 0 255 0
0.25755316 0.37122753 0.96627814 0 255 0
0.25761613 0.37127906 0.96528065 0 255 0
0.25767908 0.37133056 0.96428323 0 255 0
0.25774205 0.37138209 0.96328574 0 255 0
0.25841868 0.37222806 0.96228319 0 255 0
0.25848174 0.37227967 0.9612838 0 255 0
0.2579309 0.37153667 0.96029335 0 255 0
0.25799385 0.3715882 0.95929587 0 255 0
0.25805682 0.37163973 0.95829839 0 255 0
0.25750551 0.37089628 0.95731539 0 255 0
0.25756833 0.37094772 0.95631975 0 255 0
0.25763118 0.37099916 0.95532417 0 255 0
0.25769401 0.37105057 0.95432854 0 255 0
0.25714213 0.3703067 0.95335484 0 255 0
0.25659001 0.36956263 0.95238489 0 255 0
0.25665262 0.36961386 0.95139301 0 255 0
0.25733027 0.37046069 0.95037365 0 255 0
0.25789043 0.37023515 0.97327691 0 255 0
0.25795341 0.37028667 0.97227943 0 255 0
0.25740227 0.36954579 0.97127026 0 255 0
0.25746512 0.3695972 0.97027463 0 255 0
0.25752795 0.36964864 0.96927905 0 255 0
0.2575908 0.36970007 0.96828341 0 255 0
0.25765362 0.36975148 0.96728784 0 255 0
