ply
format ascii 1.0
comment PCL generated
element vertex 1061
property float x
property float y
property float z
property uchar red
property uchar green
property uchar blue
element camera 0
property float view_px
property float view_py
property float view_pz
property float x_axisx
property float x_axisy
property float x_axisz
property float y_axisx
property float y_axisy
property float y_axisz
property float z_axisx
property float z_axisy
property float z_axisz
property float focal
property float scalex
property float scaley
property float centerx
property float centery
property int viewportx
property int viewporty
property float k1
property float k2
end_header
0.26293901 0.87548912 0.83289635 255 255 255
0.26289761 0.87527382 0.83110082 255 255 255
0.26193577 0.87224007 0.82977873 255 255 255
0.26189449 0.87202543 0.82798874 255 255 255
0.26277339 0.87462795 0.82571411 255 255 255
0.262732 0.87441266 0.82391858 255 255 255
0.2626906 0.87419736 0.82212305 255 255 255
0.26264921 0.87398207 0.82032752 255 255 255
0.26352748 0.87658119 0.81802499 255 255 255
0.26348597 0.87636524 0.81622386 255 255 255
0.26344442 0.87614924 0.81442279 255 255 255
0.26157281 0.86838448 0.7736432 255 255 255
0.26153141 0.86816919 0.77184761 255 255 255
0.26149002 0.8679539 0.77005208 255 255 255
0.26144862 0.8677386 0.76825655 255 255 255
0.26232317 0.87031829 0.76579249 255 255 255
0.26472381 0.877554 0.76219398 255 255 255
0.26468194 0.87733626 0.760378 255 255 255
0.26555565 0.8799116 0.75787687 255 255 255
0.26551366 0.87969321 0.7560553 255 255 255
0.26547164 0.87947476 0.75423378 255 255 255
0.26542965 0.87925637 0.7524122 255 255 255
0.26538765 0.87903798 0.75059068 255 255 255
0.26534566 0.87881958 0.74876916 255 255 255
0.26621845 0.88139015 0.74622899 255 255 255
0.26709098 0.88395947 0.74367774 255 255 255
0.26704872 0.88373971 0.74184501 255 255 255
0.26761609 0.88537794 0.7395221 255 255 255
0.26757374 0.88515776 0.73768568 255 255 255
0.26753139 0.88493758 0.73584932 255 255 255
0.26687968 0.88286072 0.73451424 255 255 255
0.26592356 0.87985665 0.73343915 255 255 255
0.26588142 0.87963754 0.73161209 255 255 255
0.26309839 0.87106943 0.73209113 255 255 255
0.26153415 0.86621505 0.7315712 255 255 255
0.26057923 0.86321741 0.73054999 255 255 255
0.25475389 0.84538901 0.73372895 255 255 255
0.25410455 0.8433243 0.73249602 255 255 255
0.25315103 0.84033412 0.73153603 255 255 255
0.25158924 0.83549243 0.73112196 255 255 255
0.25154907 0.83528358 0.72938025 255 255 255
0.25150892 0.83507472 0.72763854 255 255 255
0.24234392 0.80709577 0.7340855 255 255 255
0.24169682 0.80504274 0.73294914 255 255 255
0.24165802 0.80484098 0.73126686 255 255 255
0.24009909 0.80001432 0.73097718 255 255 255
0.23854057 0.7951898 0.7307061 255 255 255
0.23789428 0.79314119 0.72960687 255 255 255
0.23512088 0.78462315 0.73050374 255 255 255
0.23204438 0.77518499 0.73171997 255 255 255
0.23079167 0.77129459 0.73124653 255 255 255
0.23014684 0.76925337 0.73020852 255 255 255
0.22950216 0.76721299 0.72917801 255 255 255
0.22733922 0.76055741 0.72962177 255 255 255
0.22608782 0.75667393 0.72920585 255 255 255
0.22544394 0.75463778 0.72821063 255 255 255
0.22449671 0.75168002 0.72752178 255 255 255
0.22021101 0.7385779 0.7301529 255 255 255
0.21956824 0.73654735 0.72920406 255 255 255
0.21831875 0.73267388 0.7288717 255 255 255
0.21767639 0.73064554 0.72794145 255 255 255
0.21703424 0.72861814 0.72701859 255 255 255
0.21699883 0.72843403 0.725483 255 255 255
0.20624754 0.69548601 0.73045379 255 255 255
0.207426 0.69899011 0.72770572 255 255 255
0.20739192 0.69881284 0.72622764 255 255 255
0.20675181 0.69679636 0.7253958 255 255 255
0.19853787 0.67179477 0.73269498 255 255 255
0.19820209 0.67070472 0.73159766 255 255 255
0.19816929 0.67053419 0.73017538 255 255 255
0.19813649 0.67036366 0.72875303 255 255 255
0.19749813 0.66835606 0.7279954 255 255 255
0.19685993 0.66634935 0.72724527 255 255 255
0.19652459 0.66526157 0.72616649 255 255 255
0.1958867 0.66325641 0.7254293 255 255 255
0.1958542 0.66308743 0.72402 255 255 255
0.18886244 0.64181751 0.73046875 255 255 255
0.18883093 0.64165366 0.72910213 255 255 255
0.18879943 0.64148974 0.72773552 255 255 255
0.18816303 0.63949239 0.72706336 255 255 255
0.18722437 0.63657928 0.72674775 255 255 255
0.18719308 0.63641655 0.72539037 255 255 255
0.26477781 0.87555104 0.83831346 255 255 255
0.26473641 0.87533575 0.83651793 255 255 255
0.26469499 0.87512046 0.8347224 255 255 255
0.26465359 0.87490517 0.83292681 255 255 255
0.2646122 0.87468988 0.83113128 255 255 255
0.2645708 0.87447459 0.82933569 255 255 255
0.26452941 0.87425929 0.82754016 255 255 255
0.26541352 0.87685931 0.82526004 255 255 255
0.26537198 0.8766433 0.82345891 255 255 255
0.26533046 0.87642735 0.82165784 255 255 255
0.26528895 0.8762114 0.8198567 255 255 255
0.2652474 0.87599546 0.81805557 255 255 255
0.26520589 0.87577945 0.8162545 255 255 255
0.26608908 0.87837476 0.8139354 255 255 255
0.26328743 0.86780053 0.77367365 255 255 255
0.263246 0.86758524 0.77187812 255 255 255
0.2632046 0.86736995 0.77008259 255 255 255
0.26316321 0.86715466 0.768287 255 255 255
0.26404309 0.86973256 0.76582313 255 255 255
0.26400155 0.86951661 0.76402199 255 255 255
0.26549506 0.87395388 0.76108837 255 255 255
0.26637417 0.87652797 0.75859284 255 255 255
0.26725307 0.8791008 0.75608623 255 255 255
0.26721108 0.87888241 0.75426471 255 255 255
0.26716906 0.87866402 0.75244313 255 255 255
0.26712707 0.87844557 0.75062156 255 255 255
0.26708508 0.87822717 0.74880004 255 255 255
0.2679632 0.88079596 0.74625999 255 255 255
0.26792106 0.88057691 0.74443287 255 255 255
0.26787895 0.8803578 0.74260581 255 255 255
0.26875651 0.88292396 0.7400434 255 255 255
0.26932734 0.88456059 0.73771691 255 255 255
0.26928499 0.88434035 0.73588049 255 255 255
0.26862976 0.88226473 0.73454535 255 255 255
0.26766831 0.87926245 0.7334702 255 255 255
0.26578799 0.87347955 0.7331692 255 255 255
0.26329559 0.86584532 0.73340297 255 255 255
0.26233521 0.86284882 0.73237604 255 255 255
0.26229382 0.86263353 0.73058045 255 255 255
0.2564348 0.84481651 0.73375881 255 255 255
0.25639421 0.84460545 0.7319985 255 255 255
0.25482309 0.83976465 0.73156571 255 255 255
0.25325239 0.83492601 0.73115152 255 255 255
0.25321224 0.83471715 0.72940981 255 255 255
0.2531721 0.83450836 0.72766811 255 255 255
0.2439539 0.80654746 0.73411417 255 255 255
0.24330325 0.80449563 0.73297769 255 255 255
0.24173523 0.79967088 0.73267859 255 255 255
0.24077924 0.79669702 0.73184109 255 255 255
0.24012928 0.79464877 0.73073435 255 255 255
0.23947947 0.79260129 0.72963506 255 255 255
0.23669009 0.78408873 0.73053163 255 255 255
0.23359586 0.77465659 0.73174757 255 255 255
0.23233603 0.77076864 0.73127401 255 255 255
0.23168765 0.76872861 0.73023593 255 255 255
0.23103942 0.76668942 0.72920537 255 255 255
0.22886409 0.76003808 0.72964889 255 255 255
0.22699474 0.75431222 0.72982329 255 255 255
0.22604208 0.75135559 0.72912872 255 255 255
0.22600563 0.75116616 0.7275486 255 255 255
0.22535859 0.74913317 0.72657001 255 255 255
0.22532226 0.74894416 0.72499353 255 255 255
0.2252859 0.74875516 0.72341704 255 255 255
0.2191463 0.73014498 0.72796762 255 255 255
0.2185006 0.72811872 0.7270447 255 255 255
0.21846519 0.7279346 0.72550905 255 255 255
0.20897371 0.69921827 0.73364294 255 255 255
0.20887147 0.69868666 0.72920883 255 255 255
0.20883739 0.6985094 0.72773075 255 255 255
0.20880331 0.69833219 0.72625273 255 255 255
0.19993067 0.67150241 0.73414338 255 255 255
0.19989784 0.67133164 0.73271918 255 255 255
0.199865 0.67116088 0.73129499 255 255 255
0.19983216 0.67099011 0.72987086 255 255 255
0.1994947 0.66990107 0.72877717 255 255 255
0.19885279 0.66789472 0.72801948 255 255 255
0.19821103 0.6658892 0.72726929 255 255 255
0.19726498 0.66296703 0.72686255 255 255 255
0.19601475 0.65912896 0.72680485 255 255 255
0.19598243 0.65896088 0.72540295 255 255 255
0.19016744 0.64137304 0.730492 255 255 255
0.19013594 0.64120919 0.72912538 255 255 255
0.18949592 0.63921261 0.7284494 255 255 255
0.18946449 0.63904917 0.72708648 255 255 255
0.18912886 0.63796973 0.72607267 255 255 255
0.18757682 0.633228 0.72646618 255 255 255
0.26653379 0.87518245 0.84013951 255 255 255
0.2664924 0.87496716 0.83834398 255 255 255
0.266451 0.87475187 0.83654839 255 255 255
0.2654781 0.87171972 0.83520943 255 255 255
0.26543686 0.87150508 0.83341944 255 255 255
0.26632679 0.87410599 0.83116174 255 255 255
0.26628539 0.8738907 0.82936621 255 255 255
0.26624399 0.87367541 0.82757068 255 255 255
0.2662026 0.87346011 0.82577509 255 255 255
0.2661612 0.87324482 0.82397956 255 255 255
0.26611981 0.87302953 0.82218397 255 255 255
0.26607841 0.87281418 0.82038844 255 255 255
0.26696733 0.87540972 0.81808615 255 255 255
0.26692578 0.87519372 0.81628501 255 255 255
0.26781431 0.87778723 0.81396604 255 255 255
0.26500201 0.86721659 0.77370417 255 255 255
0.26496062 0.8670013 0.77190858 255 255 255
0.26491919 0.866786 0.77011305 255 255 255
0.2648778 0.86657071 0.76831746 255 255 255
0.26576301 0.86914682 0.76585364 255 255 255
0.26572147 0.86893088 0.76405257 255 255 255
0.26722383 0.8733651 0.76111907 255 255 255
0.26810828 0.8759374 0.75862372 255 255 255
0.26806641 0.87571961 0.75680768 255 255 255
0.26895049 0.87829 0.75429559 255 255 255
0.26890847 0.87807161 0.75247407 255 255 255
0.26886648 0.87785321 0.75065255 255 255 255
0.26882449 0.87763482 0.74883097 255 255 255
0.26970792 0.88020182 0.74629104 255 255 255
0.26966581 0.87998271 0.74446392 255 255 255
0.26962367 0.87976366 0.7426368 255 255 255
0.27050656 0.88232797 0.74007452 255 255 255
0.27108094 0.88396335 0.73774803 255 255 255
0.27042207 0.88188845 0.73640919 255 255 255
0.26945516 0.8788873 0.73532832 255 255 255
0.2684885 0.87588751 0.73425859 255 255 255
0.26659769 0.87010896 0.73396301 255 255 255
0.26409119 0.86248016 0.73420203 255 255 255
0.26312566 0.8594861 0.73318064 255 255 255
0.26308438 0.85927147 0.73139066 255 255 255
0.26057941 0.85165042 0.7316947 255 255 255
0.25899887 0.84680974 0.73123759 255 255 255
0.25741875 0.84197122 0.73079908 255 255 255
0.25553125 0.83620983 0.73064643 255 255 255
0.25549102 0.83600056 0.72890103 255 255 255
0.25545079 0.83579129 0.72715563 255 255 255
0.24556388 0.80599916 0.73414278 255 255 255
0.24490969 0.80394852 0.73300624 255 255 255
0.24333279 0.79912674 0.73270696 255 255 255
0.24237148 0.79615474 0.7318694 255 255 255
0.24171798 0.79410768 0.7307626 255 255 255
0.24167962 0.79390818 0.72909886 255 255 255
0.23887421 0.78540057 0.72999144 255 255 255
0.23606957 0.77689695 0.73091745 255 255 255
0.23449515 0.77208811 0.73072588 255 255 255
0.23322849 0.76820385 0.73026329 255 255 255
0.2316549 0.76339918 0.73010707 255 255 255
0.22916003 0.75583071 0.73084927 255 255 255
0.22850896 0.75379652 0.72985017 255 255 255
0.22755097 0.75084174 0.72915554 255 255 255
0.22690032 0.74880952 0.7281732 255 255 255
0.22502159 0.74309379 0.72840118 255 255 255
0.22314338 0.73738074 0.72865152 255 255 255
0.22187962 0.73351163 0.72831517 255 255 255
0.22184397 0.7333262 0.72676843 255 255 255
0.21996693 0.72761935 0.72707075 255 255 255
0.21028286 0.69820595 0.72923386 255 255 255
0.21024878 0.69802874 0.7277559 255 255 255
0.2102147 0.69785154 0.72627783 255 255 255
0.20129065 0.67103922 0.73416758 255 255 255
0.20125781 0.67086846 0.73274338 255 255 255
0.20122497 0.67069775 0.73131919 255 255 255
0.20119214 0.67052698 0.729895 255 255 255
0.2011593 0.67035621 0.7284708 255 255 255
0.20020744 0.66743338 0.72804356 255 255 255
0.19956215 0.66542906 0.72729331 255 255 255
0.19861077 0.66250873 0.72688651 255 255 255
0.19735344 0.65867305 0.72682869 255 255 255
0.19732112 0.65850496 0.72542679 255 255 255
0.19147246 0.64092863 0.73051512 255 255 255
0.19144094 0.64076477 0.72914851 255 255 255
0.19079737 0.63876933 0.72847253 255 255 255
0.19076595 0.63860595 0.72710961 255 255 255
0.19042856 0.63752711 0.7260958 255 255 255
0.18886763 0.63278836 0.72648907 255 255 255
0.26922709 0.87763143 0.84153128 255 255 255
0.26824838 0.8745985 0.84016997 255 255 255
0.26820698 0.87438321 0.83837444 255 255 255
0.26722866 0.8713522 0.83702981 255 255 255
0.26718739 0.87113756 0.83523983 255 255 255
0.26714611 0.87092298 0.83344984 255 255 255
0.26710486 0.87070835 0.83165991 255 255 255
0.26799998 0.87330675 0.82939667 255 255 255
0.26795858 0.87309146 0.82760113 255 255 255
0.26791719 0.87287617 0.82580554 255 255 255
0.26787579 0.87266088 0.82401001 255 255 255
0.2678344 0.87244558 0.82221448 255 255 255
0.267793 0.87223029 0.82041895 255 255 255
0.2677516 0.872015 0.81862342 255 255 255
0.2686457 0.87460798 0.81631565 255 255 255
0.2666752 0.86641741 0.7719391 255 255 255
0.26663381 0.86620212 0.77014351 255 255 255
0.26659238 0.86598682 0.76834798 255 255 255
0.31035066 0.99688321 0.73514795 255 255 255
0.31030321 0.99663657 0.73309064 255 255 255
0.26895261 0.87277633 0.76114976 255 255 255
0.26984236 0.87534678 0.75865448 255 255 255
0.26980048 0.87512904 0.75683856 255 255 255
0.2706899 0.87769765 0.75432652 255 255 255
0.27064791 0.87747926 0.752505 255 255 255
0.27060589 0.8772608 0.75068343 255 255 255
0.2705639 0.87704241 0.74886191 255 255 255
0.27052191 0.87682402 0.74704039 255 255 255
0.27141052 0.87938851 0.74449492 255 255 255
0.27136841 0.87916946 0.74266779 255 255 255
0.27132627 0.87895036 0.74084067 255 255 255
0.27128416 0.87873131 0.73901355 255 255 255
0.27124202 0.8785122 0.73718643 255 255 255
0.2702699 0.87551355 0.73611104 255 255 255
0.26929805 0.87251616 0.73504686 255 255 255
0.26770663 0.86766803 0.73450232 255 255 255
0.26580581 0.86189622 0.73423254 255 255 255
0.26483494 0.85890394 0.73321104 255 255 255
0.26479366 0.85868937 0.73142099 255 255 255
0.2607258 0.84644723 0.73303342 255 255 255
0.26068509 0.84623545 0.73126757 255 255 255
0.26064438 0.84602374 0.72950172 255 255 255
0.26060367 0.84581202 0.72773588 255 255 255
0.26056296 0.84560031 0.72597003 255 255 255
0.26052222 0.84538853 0.72420418 255 255 255
0.24717386 0.80545086 0.73417139 255 255 255
0.24651612 0.80340147 0.73303479 255 255 255
0.24554913 0.80042952 0.73218226 255 255 255
0.24489178 0.7983821 0.73106241 255 255 255
0.24392529 0.79541254 0.73023027 255 255 255
0.24326833 0.79336715 0.72912711 255 255 255
0.23890083 0.78025234 0.73143947 255 255 255
0.2382447 0.77821136 0.73037344 255 255 255
0.23604308 0.77156091 0.73075342 255 255 255
0.23476933 0.76767915 0.73029071 255 255 255
0.23318686 0.76287746 0.73013425 255 255 255
0.2306778 0.75531381 0.73087627 255 255 255
0.23002319 0.75328082 0.72987711 255 255 255
0.22905989 0.75032783 0.72918236 255 255 255
0.22840567 0.74829686 0.72819996 255 255 255
0.22651632 0.74258476 0.72842777 255 255 255
0.22400986 0.73503464 0.72928303 255 255 255
0.22335662 0.73300862 0.72834146 255 255 255
0.22332095 0.73282319 0.72679472 255 255 255
0.21958129 0.72160214 0.72894567 255 255 255
0.21299656 0.70175558 0.73096025 255 255 255
0.21169426 0.6977253 0.72925901 255 255 255
0.21166018 0.69754809 0.72778094 255 255 255
0.2116261 0.69737089 0.72630292 255 255 255
0.21159202 0.69719362 0.72482491 255 255 255
0.20261778 0.67040533 0.73276758 255 255 255
0.20258495 0.67023456 0.73134339 255 255 255
0.20255211 0.67006379 0.7299192 255 255 255
0.20251927 0.66989303 0.728495 255 255 255
0.20156209 0.66697198 0.72806764 255 255 255
0.20091325 0.66496891 0.72731733 255 255 255
0.2005726 0.66388297 0.72623843 255 255 255
0.1993081 0.66004932 0.72617674 255 255 255
0.19927569 0.65988076 0.72477114 255 255 255
0.19277747 0.64048415 0.73053837 255 255 255
0.19274595 0.6403203 0.72917175 255 255 255
0.19271444 0.64015645 0.72780514 255 255 255
0.19206741 0.63816273 0.72713274 255 255 255
0.19203599 0.6379993 0.72576988 255 255 255
0.19200456 0.63783586 0.72440696 255 255 255
0.27193126 0.8800782 0.84293449 255 255 255
0.27094701 0.87704569 0.84156191 255 255 255
0.269963 0.87401456 0.84020048 255 255 255
0.26897922 0.87098473 0.8388502 255 255 255
0.26893795 0.8707701 0.83706021 255 255 255
0.26889667 0.87055546 0.83527023 255 255 255
0.26885539 0.87034082 0.83348024 255 255 255
0.26881412 0.87012619 0.83169025 255 255 255
0.26971459 0.8727228 0.82942718 255 255 255
0.2696732 0.87250751 0.82763159 255 255 255
0.26963177 0.87229222 0.82583606 255 255 255
0.26959038 0.87207693 0.82404053 255 255 255
0.26954898 0.87186164 0.822245 255 255 255
0.26950759 0.87164634 0.82044941 255 255 255
0.26946619 0.87143105 0.81865388 255 255 255
0.3218824 1.0251056 0.73695433 255 255 255
0.32058349 1.0211325 0.73570979 255 255 255
0.31928498 1.0171613 0.73448002 255 255 255
0.31923661 1.0169096 0.73238182 255 255 255
0.31231526 0.99621421 0.73518288 255 255 255
0.31226781 0.99596757 0.73312557 255 255 255
0.31222039 0.9957208 0.73106819 255 255 255
0.27157646 0.87475622 0.75868535 255 255 255
0.27153459 0.87453848 0.75686938 255 255 255
0.27242932 0.87710524 0.75435746 255 255 255
0.27238733 0.87688684 0.75253594 255 255 255
0.2723453 0.87666845 0.75071436 255 255 255
0.27230331 0.87645006 0.74889284 255 255 255
0.27226132 0.87623161 0.74707127 255 255 255
0.27221933 0.87601322 0.74524975 255 255 255
0.27311313 0.87857527 0.74269879 255 255 255
0.27307102 0.87835616 0.74087167 255 255 255
0.27302888 0.87813711 0.73904455 255 255 255
0.27298677 0.877918 0.73721749 255 255 255
0.27107403 0.87214333 0.73689365 255 255 255
0.27009699 0.86914855 0.7358349 255 255 255
0.26943186 0.86708045 0.73453301 255 255 255
0.26845533 0.86408806 0.73349464 255 255 255
0.267479 0.86109704 0.73246747 255 255 255
0.26650292 0.85810721 0.73145139 255 255 255
0.26241204 0.84587294 0.7330634 255 255 255
0.2623713 0.84566122 0.73129755 255 255 255
0.26139635 0.84267706 0.7303279 255 255 255
0.26135576 0.842466 0.7285676 255 255 255
0.26131517 0.84225494 0.72680736 255 255 255
0.26220846 0.8448143 0.72423422 255 255 255
0.24878384 0.80490255 0.7342 255 255 255
0.24874495 0.80470037 0.73251402 255 255 255
0.24808376 0.80265266 0.73138106 255 255 255
0.24648936 0.79783803 0.73109078 255 255 255
0.24551754 0.79487032 0.73025858 255 255 255
0.24485703 0.79282612 0.72915536 255 255 255
0.24046473 0.77971971 0.73146725 255 255 255
0.23980503 0.77767992 0.73040116 255 255 255
0.23759101 0.77103376 0.73078096 255 255 255
0.23631017 0.7671544 0.73031807 255 255 255
0.23409717 0.76051366 0.7307443 255 255 255
0.23219557 0.75479692 0.73090327 255 255 255
0.23153745 0.75276512 0.72990406 255 255 255
0.23056881 0.74981397 0.72920918 255 255 255
0.22991104 0.7477842 0.72822672 255 255 255
0.2261474 0.73655623 0.73025846 255 255 255
0.22549041 0.73453045 0.72930932 255 255 255
0.22483362 0.73250562 0.72836769 255 255 255
0.22479795 0.73232019 0.72682095 255 255 255
0.22103702 0.72110641 0.72897154 255 255 255
0.2191395 0.71541077 0.72930688 255 255 255
0.21786319 0.711555 0.72904086 255 255 255
0.21782847 0.71137446 0.72753495 255 255 255
0.2143808 0.70109439 0.7295 255 255 255
0.21310565 0.69724464 0.72928405 255 255 255
0.21307157 0.69706744 0.72780609 255 255 255
0.21303749 0.69689018 0.72632802 255 255 255
0.21300341 0.69671297 0.72485 255 255 255
0.20397775 0.6699422 0.73279178 255 255 255
0.20394492 0.66977143 0.73136759 255 255 255
0.20360209 0.66868401 0.73027194 255 255 255
0.20356929 0.66851342 0.72884959 255 255 255
0.20229699 0.66467845 0.72875625 255 255 255
0.20195451 0.66359288 0.72767544 255 255 255
0.20192192 0.66342342 0.72626245 255 255 255
0.20188935 0.66325402 0.72484934 255 255 255
0.20185676 0.66308457 0.72343636 255 255 255
0.19346315 0.63820976 0.73124462 255 255 255
0.19343172 0.63804632 0.72988176 255 255 255
0.19340029 0.63788289 0.72851884 255 255 255
0.19336887 0.63771945 0.72715592 255 255 255
0.19333744 0.63755608 0.725793 255 255 255
0.19237764 0.63465089 0.72548252 255 255 255
0.19141811 0.63174707 0.72518325 255 255 255
0.27270845 0.8766759 0.84339356 255 255 255
0.27171898 0.87364596 0.84202647 255 255 255
0.27167758 0.87343067 0.84023094 255 255 255
0.27005669 0.86852747 0.83917737 255 255 255
0.27001551 0.86831331 0.83739108 255 255 255
0.26997435 0.86809915 0.83560479 255 255 255
0.26993316 0.86788493 0.83381855 255 255 255
0.2705234 0.86954409 0.83172065 255 255 255
0.27142918 0.87213892 0.82945764 255 255 255
0.27138779 0.87192363 0.82766211 255 255 255
0.27134639 0.87170833 0.82586658 255 255 255
0.27130497 0.87149304 0.82407099 255 255 255
0.27126357 0.87127769 0.82227546 255 255 255
0.27122217 0.8710624 0.82047987 255 255 255
0.27118078 0.87084711 0.81868434 255 255 255
0.32619867 1.0314351 0.73973572 255 255 255
0.32614967 1.0311803 0.73760962 255 255 255
0.32390019 1.0244185 0.73699021 255 255 255
0.3225942 1.0204477 0.73574555 255 255 255
0.32128859 1.0164788 0.73451567 255 255 255
0.32124022 1.0162272 0.73241746 255 255 255
0.31427985 0.99554509 0.73521781 255 255 255
0.31423244 0.99529845 0.7331605 255 255 255
0.31418499 0.9950518 0.73110312 255 255 255
0.27331057 0.87416565 0.75871617 255 255 255
0.2732687 0.87394792 0.75690019 255 255 255
0.27416873 0.87651289 0.75438839 255 255 255
0.27412674 0.87629449 0.75256681 255 255 255
0.27408475 0.87607604 0.7507453 255 255 255
0.27404273 0.87585765 0.74892378 255 255 255
0.27400073 0.87563926 0.7471022 255 255 255
0.27395874 0.87542081 0.74528062 255 255 255
0.27485788 0.87798107 0.74272984 255 255 255
0.27481577 0.87776196 0.74090272 255 255 255
0.27477363 0.87754291 0.7390756 255 255 255
0.27379075 0.87454718 0.73799449 255 255 255
0.2728081 0.87155277 0.73692447 255 255 255
0.27182576 0.86855978 0.73586559 255 255 255
0.27115712 0.86649293 0.73456371 255 255 255
0.27111545 0.86627632 0.73275697 255 255 255
0.26919359 0.86051309 0.73249793 255 255 255
0.26915219 0.8602978 0.7307024 255 255 255
0.26817092 0.85731047 0.7296918 255 255 255
0.26405755 0.84508693 0.73132753 255 255 255
0.26307726 0.84210461 0.73035777 255 255 255
0.25677356 0.82342708 0.73394209 255 255 255
0.2557945 0.82045126 0.73302615 255 255 255
0.25512877 0.81839955 0.7318505 255 255 255
0.25258502 0.81081289 0.732319 255 255 255
0.24972899 0.80230725 0.73309195 255 255 255
0.24969019 0.80210555 0.73140967 255 255 255
0.24714823 0.79452795 0.73195434 255 255 255
0.24648409 0.79248452 0.73084736 255 255 255
0.24644573 0.79228503 0.72918361 255 255 255
0.24202861 0.77918714 0.73149502 255 255 255
0.24136536 0.77714854 0.73042893 255 255 255
0.23913892 0.77050662 0.7308085 255 255 255
0.23785098 0.76662964 0.73034549 255 255 255
0.23375 0.75447059 0.73251969 255 255 255
0.23308824 0.75243956 0.73151672 255 255 255
0.23211415 0.74948955 0.73081619 255 255 255
0.23145275 0.74746054 0.72982991 255 255 255
0.23141642 0.74727154 0.72825348 255 255 255
0.22763149 0.73605078 0.73028481 255 255 255
0.22697096 0.73402625 0.72933567 255 255 255
0.22631063 0.73200262 0.72839397 255 255 255
0.22627495 0.73181719 0.72684723 255 255 255
0.22249274 0.72061062 0.72899741 255 255 255
0.22058456 0.71491867 0.72933257 255 255 255
0.21930118 0.71106529 0.72906643 255 255 255
0.21926646 0.71088475 0.72756052 255 255 255
0.21579929 0.70061129 0.72952521 255 255 255
0.21451704 0.69676399 0.7293092 255 255 255
0.21448296 0.69658673 0.72783113 255 255 255
0.21382503 0.69457585 0.72699523 255 255 255
0.21379104 0.69439906 0.72552097 255 255 255
0.20533773 0.66947901 0.73281592 255 255 255
0.20592844 0.67114061 0.73073846 255 255 255
0.20496029 0.66822141 0.73029608 255 255 255
0.20492749 0.66805089 0.72887373 255 255 255
0.20364809 0.66421831 0.72878027 255 255 255
0.20330384 0.66313332 0.72769946 255 255 255
0.20264813 0.66113377 0.72695827 255 255 255
0.20261563 0.66096479 0.72554892 255 255 255
0.20258315 0.66079581 0.72413957 255 255 255
0.1947646 0.63776648 0.73126775 255 255 255
0.19473317 0.6376031 0.72990489 255 255 255
0.19470176 0.63743967 0.72854197 255 255 255
0.19467033 0.63727623 0.72717905 255 255 255
0.19463891 0.63711286 0.72581613 255 255 255
0.27446988 0.87630618 0.84522527 255 255 255
0.27347496 0.87327731 0.84385252 255 255 255
0.27343357 0.87306201 0.84205699 255 255 255
0.27339217 0.87284672 0.84026146 255 255 255
0.27176243 0.86794657 0.83920765 255 255 255
0.27172124 0.86773241 0.83742142 255 255 255
0.27168006 0.86751825 0.83563513 255 255 255
0.27163887 0.86730403 0.83384883 255 255 255
0.27223268 0.86896199 0.83175105 255 255 255
0.27314377 0.87155497 0.82948816 255 255 255
0.27310237 0.87133968 0.82769257 255 255 255
0.27306098 0.87112439 0.82589704 255 255 255
0.27301958 0.87090909 0.82410145 255 255 255
0.27297819 0.8706938 0.82230592 255 255 255
0.27293676 0.87047851 0.82051039 255 255 255
0.27289537 0.87026322 0.81871486 255 255 255
0.32827792 1.0309987 0.74189782 255 255 255
0.32822889 1.0307437 0.73977178 255 255 255
0.32817987 1.0304888 0.73764575 255 255 255
0.32686636 1.0265181 0.73638046 255 255 255
0.3246049 1.0197629 0.73578125 255 255 255
0.32455635 1.0195104 0.7336756 255 255 255
0.3245078 1.019258 0.73157001 255 255 255
0.31529659 0.99209183 0.73592067 255 255 255
0.31524929 0.99184579 0.73386884 255 255 255
0.31520197 0.99159974 0.73181707 255 255 255
0.27504465 0.87357509 0.75874698 255 255 255
0.27500278 0.87335736 0.75693107 255 255 255
0.27590814 0.87592047 0.75441933 255 255 255
0.27586615 0.87570208 0.75259775 255 255 255
0.27582416 0.87548369 0.75077617 255 255 255
0.27578217 0.8752653 0.74895465 255 255 255
0.27574015 0.87504685 0.74713314 255 255 255
0.27569816 0.87482846 0.74531156 255 255 255
0.27660263 0.87738687 0.74276084 255 255 255
0.27656049 0.87716776 0.74093372 255 255 255
0.27651837 0.87694871 0.7391066 255 255 255
0.27553016 0.87395483 0.73802543 255 255 255
0.27454221 0.8709622 0.73695529 255 255 255
0.27355456 0.867971 0.73589635 255 255 255
0.27288234 0.8659054 0.73459435 255 255 255
0.27284068 0.86568874 0.73278767 255 255 255
0.27090818 0.85992914 0.73252845 255 255 255
0.27086678 0.85971385 0.73073292 255 255 255
0.26925009 0.85488164 0.73024547 255 255 255
0.26731881 0.84912843 0.73004007 255 255 255
0.26664796 0.84706974 0.72879565 255 255 255
0.25841901 0.82286674 0.73397136 255 255 255
0.25743461 0.8198927 0.73305535 255 255 255
0.25676534 0.81784219 0.73187959 255 255 255
0.25420743 0.81026036 0.73234785 255 255 255
0.25133544 0.8017602 0.7331205 255 255 255
0.25129664 0.80155843 0.73143822 255 255 255
0.24874048 0.79398566 0.73198259 255 255 255
0.24807279 0.79194349 0.73087561 255 255 255
0.24803443 0.79174399 0.72921181 255 255 255
0.24453609 0.78141665 0.73067117 255 255 255
0.24355473 0.77845818 0.7298851 255 255 255
0.24131574 0.77181995 0.73026073 255 255 255
0.23939182 0.76610488 0.73037291 255 255 255
0.23526777 0.7539537 0.73254669 255 255 255
0.23460247 0.75192386 0.7315436 255 255 255
0.23362307 0.74897569 0.73084301 255 255 255
0.23295812 0.74694788 0.72985667 255 255 255
0.23229338 0.74492103 0.72887778 255 255 255
0.22911556 0.73554534 0.73031116 255 255 255
0.22845151 0.733522 0.72936201 255 255 255
0.2277876 0.73149961 0.7284202 255 255 255
0.22775196 0.73131412 0.72687346 255 255 255
0.2233205 0.71827924 0.72963941 255 255 255
0.22202964 0.71442652 0.72935826 255 255 255
0.22073917 0.71057558 0.729092 255 255 255
0.22070442 0.71039498 0.72758609 255 255 255
0.21721776 0.70012826 0.72955042 255 255 255
0.21655597 0.69811666 0.72869962 255 255 255
0.21526687 0.69427311 0.72849458 255 255 255
0.21460553 0.69226384 0.72766238 255 255 255
0.21363068 0.6893394 0.72716045 255 255 255
0.2095201 0.67725813 0.72991729 255 255 255
0.20854621 0.67433864 0.72945625 255 255 255
0.20663203 0.66867435 0.72999173 255 255 255
0.20659919 0.66850358 0.72856754 255 255 255
0.20562606 0.66558796 0.72813994 255 255 255
0.20496657 0.66358852 0.7273894 255 255 255
0.20399392 0.66067541 0.72698218 255 255 255
0.20396143 0.66050643 0.72557282 255 255 255
0.20392893 0.66033745 0.72416353 255 255 255
0.19669248 0.63915086 0.73060799 255 255 255
0.19666097 0.638987 0.72924137 255 255 255
0.19662946 0.63882315 0.72787476 255 255 255
0.19659795 0.6386593 0.72650814 255 255 255
0.19594036 0.63666964 0.72583926 255 255 255
0.27623135 0.87593639 0.84705698 255 255 255
0.2761898 0.87572044 0.84525585 255 255 255
0.27518958 0.87269336 0.84388304 255 255 255
0.27514815 0.87247807 0.84208745 255 255 255
0.27414832 0.86945301 0.84073132 255 255 255
0.27410704 0.86923838 0.83894134 255 255 255
0.27342698 0.8671515 0.8374517 255 255 255
0.27338579 0.86693734 0.83566546 255 255 255
0.27334461 0.86672312 0.83387923 255 255 255
0.27394193 0.86837989 0.83178139 255 255 255
0.27390069 0.86816525 0.82999146 255 255 255
0.27385941 0.86795062 0.82820147 255 255 255
0.27381814 0.86773598 0.82641149 255 255 255
0.27473417 0.87032515 0.82413197 255 255 255
0.27469277 0.87010986 0.82233644 255 255 255
0.27465138 0.86989456 0.82054085 255 255 255
0.27460995 0.86967927 0.81874532 255 255 255
0.33030811 1.0303073 0.74193394 255 255 255
0.33025908 1.0300523 0.73980784 255 255 255
0.33021009 1.0297974 0.73768181 255 255 255
0.32888949 1.0258292 0.7364164 255 255 255
0.32788706 1.0227907 0.73494887 255 255 255
0.32656705 1.0188257 0.73371136 255 255 255
0.32651851 1.0185732 0.73160577 255 255 255
0.31725588 0.99142462 0.73595548 255 255 255
0.31720856 0.99117857 0.73390371 255 255 255
0.31716126 0.99093252 0.73185194 255 255 255
0.31584352 0.98697931 0.73071277 255 255 255
0.27768958 0.87554651 0.75627178 255 255 255
0.27764755 0.87532812 0.7544502 255 255 255
0.27760556 0.87510973 0.75262868 255 255 255
0.27756357 0.87489128 0.75080717 255 255 255
0.27752158 0.87467289 0.74898559 255 255 255
0.27747956 0.8744545 0.74716407 255 255 255
0.27743757 0.87423605 0.74534249 255 255 255
0.27739558 0.87401766 0.74352098 255 255 255
0.27830523 0.87657362 0.74096477 255 255 255
0.27826309 0.87635452 0.73913765 255 255 255
0.27726957 0.87336242 0.7380563 255 255 255
0.27627632 0.87037164 0.73698616 255 255 255
0.27528334 0.86738229 0.7359271 255 255 255
0.27460757 0.86531782 0.73462498 255 255 255
0.27361506 0.86233085 0.73358637 255 255 255
0.27262276 0.85934526 0.73255891 255 255 255
0.27163076 0.85636091 0.73154259 255 255 255
0.27095583 0.85430074 0.73027575 255 255 255
0.26901391 0.84855115 0.73007023 255 255 255
0.26833951 0.84649366 0.72882569 255 255 255
0.26006445 0.82230633 0.73400056 255 255 255
0.25907472 0.81933415 0.7330845 255 255 255
0.2584019 0.81728482 0.73190868 255 255 255
0.25836238 0.81707931 0.73019481 255 255 255
0.25357491 0.80305552 0.73259985 255 255 255
0.2519536 0.79824841 0.73229611 255 255 255
0.25033274 0.79344344 0.73201096 255 255 255
0.2502943 0.79324353 0.73034346 255 255 255
0.2489904 0.78936225 0.72980416 255 255 255
0.2461053 0.78088224 0.73069906 255 255 255
0.2451186 0.77792555 0.72991294 255 255 255
0.24444835 0.77588981 0.72885036 255 255 255
0.24282975 0.77109677 0.72866362 255 255 255
0.23678558 0.7534368 0.73257363 255 255 255
0.23611669 0.75140816 0.73157048 255 255 255
0.23449986 0.74662423 0.73145986 255 255 255
0.23383148 0.74459815 0.73047721 255 255 255
0.23253132 0.74073625 0.73009938 255 255 255
0.23249523 0.74054855 0.7285341 255 255 255
0.23056383 0.73485357 0.72878343 255 255 255
0.22989629 0.7328319 0.72783786 255 255 255
0.22986053 0.73264599 0.72628742 255 255 255
0.22477268 0.7177847 0.72966516 255 255 255
0.22347473 0.71393436 0.72938395 255 255 255
0.22217713 0.71008581 0.72911751 255 255 255
0.2208799 0.7062391 0.72886598 255 255 255
0.22084536 0.7060594 0.72736752 255 255 255
0.21797089 0.69763482 0.72872478 255 255 255
0.21667473 0.69379365 0.72851962 255 255 255
0.2153789 0.68995428 0.72832936 255 255 255
0.21502966 0.68886292 0.72718537 255 255 255
0.21089603 0.67678958 0.72994173 255 255 255
0.20991682 0.67387182 0.72948062 255 255 255
0.20862256 0.67004067 0.72935903 255 255 255
0.20795916 0.66804039 0.72859168 255 255 255
0.20698071 0.66512662 0.72816402 255 255 255
0.20600252 0.66221428 0.72774744 255 255 255
0.20533971 0.66021711 0.72700608 255 255 255
0.20530722 0.66004813 0.72559679 255 255 255
0.20527472 0.65987915 0.72418749 255 255 255
0.20114738 0.64783847 0.72721684 255 255 255
0.19796598 0.63854259 0.7292645 255 255 255
0.19793446 0.63837874 0.72789794 255 255 255
0.19727325 0.63638979 0.7272253 255 255 255
0.19692698 0.63531399 0.72621131 255 255 255
0.27795124 0.87535065 0.84708756 255 255 255
0.27694556 0.87232476 0.84570903 255 255 255
0.27690417 0.87210947 0.8439135 255 255 255
0.27686277 0.87189418 0.84211791 255 255 255
0.27585757 0.86887085 0.84076172 255 255 255
0.27581632 0.86865628 0.83897173 255 255 255
0.27513272 0.86657059 0.83748204 255 255 255
0.27509153 0.86635637 0.8356958 255 255 255
0.27505034 0.86614221 0.83390951 255 255 255
0.27565122 0.86779773 0.83181179 255 255 255
0.27560994 0.8675831 0.83002186 255 255 255
0.27556869 0.86736852 0.82823181 255 255 255
0.27552742 0.86715388 0.82644188 255 255 255
0.27548614 0.86693925 0.8246519 255 255 255
0.27544487 0.86672461 0.82286191 255 255 255
0.27540359 0.86650997 0.82107192 255 255 255
0.33233833 1.0296159 0.74197006 255 255 255
0.33228931 1.0293609 0.73984396 255 255 255
0.33224028 1.029106 0.73771793 255 255 255
0.33091259 1.0251402 0.7364524 255 255 255
0.32990485 1.0221035 0.73498476 255 255 255
0.32985613 1.0218501 0.73287165 255 255 255
0.3298074 1.0215968 0.73075861 255 255 255
0.31921515 0.99075729 0.73599029 255 255 255
0.31788999 0.98680466 0.73483622 255 255 255
0.31784284 0.98655957 0.7327919 255 255 255
0.31779569 0.98631448 0.73074752 255 255 255
0.27942899 0.87495416 0.75630271 255 255 255
0.279387 0.87473571 0.75448114 255 255 255
0.27934498 0.87451732 0.75265962 255 255 255
0.27930298 0.87429893 0.75083804 255 255 255
0.27926099 0.87408054 0.74901652 255 255 255
0.279219 0.87386209 0.74719501 255 255 255
0.27917698 0.8736437 0.74537343 255 255 255
0.27913499 0.8734253 0.74355185 255 255 255
0.28004998 0.87597942 0.74099576 255 255 255
0.28000784 0.87576032 0.73916864 255 255 255
0.2799657 0.87554127 0.73734152 255 255 255
0.27896699 0.87255162 0.73626566 255 255 255
0.27701211 0.86679351 0.73595786 255 255 255
0.2763328 0.8647303 0.73465568 255 255 255
0.27533498 0.86174512 0.73361695 255 255 255
0.27433738 0.85876131 0.73258936 255 255 255
0.27334002 0.85577875 0.73157299 255 255 255
0.27170575 0.85095328 0.73109078 255 255 255
0.27007189 0.84613001 0.73062718 255 255 255
0.26907548 0.8431524 0.72965163 255 255 255
0.2617099 0.82174599 0.73402983 255 255 255
0.26071486 0.81877559 0.73311365 255 255 255
0.2600385 0.81672746 0.73193777 255 255 255
0.25999898 0.816522 0.73022395 255 255 255
0.26059604 0.81815773 0.72796094 255 255 255
0.25196344 0.79310113 0.73370665 255 255 255
0.25192499 0.79290116 0.73203921 255 255 255
0.25125021 0.79086137 0.73093206 255 255 255
0.25057557 0.78882241 0.72983229 255 255 255
0.24894683 0.78402585 0.72959155 255 255 255
0.24668248 0.77739298 0.72994071 255 255 255
0.24600871 0.77535844 0.72887814 255 255 255
0.24374531 0.76873076 0.72926998 255 255 255
0.23830335 0.75291991 0.73260063 255 255 255
0.23763092 0.75089252 0.73159742 255 255 255
0.23536955 0.74427521 0.73207664 255 255 255
0.23469774 0.7422508 0.73109758 255 255 255
0.23402606 0.74022716 0.7301259 255 255 255
0.23271914 0.73636949 0.72976285 255 255 255
0.23204793 0.73434818 0.72880983 255 255 255
0.23074161 0.73049361 0.72847271 255 255 255
0.23070593 0.73030812 0.72692597 255 255 255
0.22622482 0.7172901 0.72969103 255 255 255
0.22491981 0.71344221 0.72940964 255 255 255
0.22361512 0.7095961 0.72914314 255 255 255
0.2223108 0.70575178 0.72889143 255 255 255
0.22227626 0.70557213 0.72739297 255 255 255
0.21938585 0.69715291 0.72874993 255 255 255
0.21871714 0.69514477 0.72790647 255 255 255
0.21677963 0.68947721 0.72835428 255 255 255
0.21642865 0.6883865 0.72721022 255 255 255
0.21639486 0.68821084 0.7257452 255 255 255
0.21128742 0.67340505 0.72950494 255 255 255
0.20998608 0.66957629 0.72938329 255 255 255
0.20931913 0.66757727 0.72861588 255 255 255
0.20833535 0.66466528 0.7281881 255 255 255
0.20735185 0.66175473 0.7277714 255 255 255
0.2066855 0.65975875 0.72703004 255 255 255
0.206653 0.65958977 0.72562069 255 255 255
0.20662051 0.65942079 0.72421134 255 255 255
0.20247011 0.64738804 0.72724032 255 255 255
0.20243818 0.64722192 0.72585511 255 255 255
0.19923948 0.63793427 0.72792113 255 255 255
0.19857471 0.63594657 0.72724843 255 255 255
0.19822668 0.63487136 0.72623438 255 255 255
0.27874294 0.8721714 0.8493306 255 255 255
0.27870154 0.87195611 0.84753507 255 255 255
0.27866015 0.87174082 0.84573954 255 255 255
0.2776494 0.86871803 0.84437203 255 255 255
0.27760813 0.86850339 0.84258211 255 255 255
0.27756685 0.86828876 0.84079206 255 255 255
0.27752557 0.86807412 0.83900213 255 255 255
0.27683842 0.86598969 0.83751237 255 255 255
0.27679726 0.86577547 0.83572614 255 255 255
0.27675608 0.86556131 0.83393985 255 255 255
0.2773605 0.86721563 0.83184218 255 255 255
0.27731922 0.867001 0.83005226 255 255 255
0.27727795 0.86678636 0.82826221 255 255 255
0.27723667 0.86657178 0.82647228 255 255 255
0.27719542 0.86635715 0.8246823 255 255 255
0.27715415 0.86614251 0.82289231 255 255 255
0.27711287 0.86592788 0.82110232 255 255 255
0.33436853 1.0289245 0.74200612 255 255 255
0.3343195 1.0286695 0.73988008 255 255 255
0.33427048 1.0284146 0.73775399 255 255 255
0.33293572 1.0244511 0.73648834 255 255 255
0.33192265 1.0214163 0.73502064 255 255 255
0.33058846 1.0174562 0.73378289 255 255 255
0.32347095 0.99682134 0.73653221 255 255 255
0.32117444 0.99009007 0.73602515 255 255 255
0.31984216 0.98613983 0.73487097 255 255 255
0.31979504 0.98589474 0.73282659 255 255 255
0.31846333 0.98194736 0.73169464 255 255 255
0.2811684 0.87436175 0.75633359 255 255 255
0.28112641 0.87414336 0.75451207 255 255 255
0.28108442 0.87392497 0.75269055 255 255 255
0.2810424 0.87370652 0.75086898 255 255 255
0.28100041 0.87348813 0.74904746 255 255 255
0.28095841 0.87326974 0.74722588 255 255 255
0.28091642 0.87305129 0.74540436 255 255 255
0.2808744 0.87283289 0.74358284 255 255 255
0.2817947 0.87538522 0.74102676 255 255 255
0.28175259 0.87516612 0.73919964 255 255 255
0.28171045 0.87494707 0.73737258 255 255 255
0.28070641 0.87195927 0.73629659 255 255 255
0.27874088 0.86620474 0.73598856 255 255 255
0.27869916 0.86598766 0.73417813 255 255 255
0.27801639 0.86392611 0.73287964 255 255 255
0.27701336 0.86094344 0.73184639 255 255 255
0.2750493 0.85519665 0.73160332 255 255 255
0.27084315 0.8430016 0.73321331 255 255 255
0.26984146 0.84002584 0.73223758 255 255 255
0.26980087 0.83981478 0.73047733 255 255 255
0.26911977 0.83776188 0.72925127 255 255 255
0.26235497 0.81821698 0.73314285 255 255 255
0.26231536 0.81801105 0.73142523 255 255 255
0.26227579 0.81780511 0.72970766 255 255 255
0.26223618 0.81759918 0.72799015 255 255 255
0.25355569 0.79255885 0.73373497 255 255 255
0.25351724 0.79235893 0.73206753 255 255 255
0.25283891 0.79032034 0.73096031 255 255 255
0.25280055 0.79012084 0.72929657 255 255 255
0.25052315 0.78348905 0.72961956 255 255 255
0.24824636 0.77686036 0.72996855 255 255 255
0.24756904 0.77482706 0.72890586 255 255 255
0.24529324 0.76820356 0.72929752 255 255 255
0.24333771 0.76250112 0.729424 255 255 255
0.23914517 0.75037682 0.73162436 255 255 255
0.23687138 0.74376374 0.73210335 255 255 255
0.236196 0.74174052 0.73112416 255 255 255
0.23552077 0.73971814 0.73015249 255 255 255
0.23420678 0.73586285 0.72978932 255 255 255
0.233532 0.73384273 0.72883618 255 255 255
0.23221861 0.7299906 0.728499 255 255 255
0.23218293 0.72980511 0.72695225 255 255 255
0.22639979 0.71313155 0.73094863 255 255 255
0.22572638 0.71111852 0.73005497 255 255 255
0.22505312 0.70910639 0.72916865 255 255 255
0.22438006 0.70709521 0.72828984 255 255 255
0.22211148 0.70050919 0.72899532 255 255 255
0.22080077 0.69667107 0.72877508 255 255 255
0.22012852 0.69466406 0.7279315 255 255 255
0.2181804 0.68900019 0.72837913 255 255 255
0.21718971 0.68608165 0.72788072 255 255 255
0.21715601 0.68590641 0.72641939 255 255 255
0.21265803 0.67293829 0.72952932 255 255 255
0.21134961 0.66911197 0.72940755 255 255 255
0.21067911 0.66711408 0.72864008 255 255 255
0.21032751 0.66603017 0.727548 255 255 255
0.21029471 0.66585958 0.72612566 255 255 255
0.20803128 0.65930045 0.72705394 255 255 255
0.2079988 0.65913147 0.72564459 255 255 255
0.20414336 0.6480158 0.72830951 255 255 255
0.20379286 0.64693755 0.72726381 255 255 255
0.20376091 0.64677143 0.72587866 255 255 255
0.20404741 0.64751685 0.72414839 255 255 255
0.19987617 0.63550335 0.72727156 255 255 255
0.19888964 0.63260657 0.72695512 255 255 255
0.28045756 0.87158746 0.84936112 255 255 255
0.28041613 0.87137216 0.84756553 255 255 255
0.28037474 0.87115687 0.84577 255 255 255
0.27935869 0.86813587 0.84440243 255 255 255
0.27931741 0.86792129 0.84261245 255 255 255
0.27927613 0.86770666 0.84082246 255 255 255
0.27923486 0.86749202 0.83903253 255 255 255
0.27919358 0.86727738 0.83724254 255 255 255
0.2791523 0.86706275 0.83545256 255 255 255
0.27911106 0.86684817 0.83366257 255 255 255
0.27906978 0.86663353 0.83187258 255 255 255
0.27902851 0.8664189 0.8300826 255 255 255
0.27898723 0.86620426 0.82829261 255 255 255
0.27894595 0.86598963 0.82650268 255 255 255
0.27987796 0.86857337 0.8242234 255 255 255
0.33634973 1.0279781 0.73991615 255 255 255
0.3363007 1.0277232 0.73779011 255 255 255
0.33495882 1.0237622 0.73652434 255 255 255
0.33394045 1.0207292 0.73505652 255 255 255
0.33130664 1.013067 0.73469377 255 255 255
0.32415029 0.99244648 0.73744982 255 255 255
0.32313371 0.98942274 0.73606002 255 255 255
0.32179436 0.985475 0.73490566 255 255 255
0.32174721 0.98522991 0.73286128 255 255 255
0.32040843 0.98128492 0.73172921 255 255 255
0.28290781 0.8737694 0.75636452 255 255 255
0.28286582 0.87355095 0.75454301 255 255 255
0.28282383 0.87333256 0.75272143 255 255 255
0.28278181 0.87311417 0.75089991 255 255 255
0.28273982 0.87289578 0.74907839 255 255 255
0.28269783 0.87267733 0.74725682 255 255 255
0.28265584 0.87245893 0.74543524 255 255 255
0.28261381 0.87224054 0.74361372 255 255 255
0.28257182 0.87202209 0.7417922 255 255 255
0.2834973 0.87457192 0.73923069 255 255 255
0.28248784 0.87158531 0.73814911 255 255 255
0.28244582 0.87136686 0.73632753 255 255 255
0.28240383 0.87114847 0.73450601 255 255 255
0.28236184 0.87093008 0.73268449 255 255 255
0.281353 0.86794668 0.73163068 255 255 255
0.28034443 0.86496478 0.73058808 255 255 255
0.27965829 0.86290526 0.72929692 255 255 255
0.27252936 0.84242737 0.73324323 255 255 255
0.27152237 0.8394534 0.7322675 255 255 255
0.26890525 0.83187813 0.73262894 255 255 255
0.26822096 0.82982826 0.73141766 255 255 255
0.26496103 0.8204186 0.73236519 255 255 255
0.2639555 0.81745249 0.73145437 255 255 255
0.2639159 0.81724656 0.7297368 255 255 255
0.25615194 0.7949748 0.73460722 255 255 255
0.25514793 0.79201657 0.73376328 255 255 255
0.25510949 0.79181665 0.73209584 255 255 255
0.25507104 0.79161674 0.7304284 255 255 255
0.2550326 0.79141676 0.72876096 255 255 255
0.25370762 0.78754365 0.72822869 255 255 255
0.25206137 0.7827543 0.72799689 255 255 255
0.24848627 0.77245998 0.72950864 255 255 255
0.24619813 0.76584113 0.72990382 255 255 255
0.244875 0.76197755 0.7294513 255 255 255
0.23840947 0.74344087 0.73370278 255 255 255
0.23773046 0.74141842 0.73271984 255 255 255
0.23769428 0.74123031 0.73115087 255 255 255
0.2370155 0.73920912 0.73017907 255 255 255
0.23633693 0.73718882 0.72921479 255 255 255
0.23501609 0.73333734 0.72886258 255 255 255
0.23498027 0.73315096 0.72730839 255 255 255
0.23365994 0.72930211 0.72697848 255 255 255
0.22784488 0.71263939 0.73097432 255 255 255
0.22716792 0.71062762 0.7300806 255 255 255
0.22649111 0.70861667 0.72919428 255 255 255
0.22517259 0.70477718 0.72894228 255 255 255
0.2228917 0.69819587 0.72965127 255 255 255
0.22029053 0.69070345 0.73070347 255 255 255
0.22025664 0.69052714 0.72923285 255 255 255
0.21958114 0.68852311 0.72840405 255 255 255
0.21858515 0.68560642 0.72790551 255 255 255
0.21855144 0.68543118 0.72644418 255 255 255
0.21274604 0.66881877 0.73085964 255 255 255
0.21271312 0.66864759 0.72943175 255 255 255
0.21203908 0.66665095 0.72866428 255 255 255
0.2116857 0.66556758 0.72757214 255 255 255
0.2116529 0.66539705 0.7261498 255 255 255
0.20937708 0.65884215 0.72707784 255 255 255
0.20549986 0.64773107 0.72972012 255 255 255
0.20546786 0.64756471 0.72833306 255 255 255
0.20447497 0.64466423 0.72797 255 255 255
0.20380259 0.64267629 0.72727495 255 255 255
0.20281017 0.63977826 0.72693235 255 255 255
0.20117763 0.63506013 0.72729468 255 255 255
0.28217214 0.87100357 0.84939158 255 255 255
0.28115049 0.86798304 0.8480128 255 255 255
0.28110921 0.86776841 0.84622282 255 255 255
0.28041464 0.86568457 0.8447181 255 255 255
0.28037345 0.86547041 0.84293181 255 255 255
0.28033227 0.86525619 0.84114558 255 255 255
0.28029108 0.86504203 0.83935928 255 255 255
0.28024989 0.86482787 0.83757305 255 255 255
0.28020871 0.86461365 0.83578676 255 255 255
0.28016752 0.86439949 0.83400047 255 255 255
0.28012633 0.86418533 0.83221424 255 255 255
0.28008515 0.86397111 0.83042794 255 255 255
0.28004396 0.86375695 0.82864171 255 255 255
0.28065524 0.86540753 0.82653302 255 255 255
0.28159255 0.86798942 0.82425392 255 255 255
0.33968025 1.0309923 0.73910689 255 255 255
0.33963108 1.0307364 0.7369734 255 255 255
0.33698195 1.0230732 0.73656029 255 255 255
0.33465841 1.0163391 0.73596001 255 255 255
0.33201066 1.0086828 0.73560441 255 255 255
0.32611492 0.99177736 0.73748475 255 255 255
0.32606748 0.99153072 0.73542738 255 255 255
0.32374656 0.98481017 0.73494035 255 255 255
0.32369941 0.98456508 0.73289597 255 255 255
0.32235354 0.98062247 0.73176384 255 255 255
0.28367329 0.87040448 0.7570852 255 255 255
0.28363141 0.87018675 0.75526917 255 255 255
0.28358954 0.86996901 0.75345325 255 255 255
0.28452125 0.87252176 0.75093085 255 255 255
0.28447923 0.87230337 0.74910927 255 255 255
0.28443724 0.87208498 0.74728775 255 255 255
0.28439525 0.87186652 0.74546623 255 255 255
0.28435326 0.87164813 0.74364465 255 255 255
0.28431123 0.87142974 0.74182308 255 255 255
0.28524205 0.87397772 0.73926169 255 255 255
0.28422725 0.8709929 0.73818004 255 255 255
0.28418526 0.87077451 0.73635846 255 255 255
0.28414324 0.87055612 0.73453689 255 255 255
0.28410125 0.87033767 0.73271537 255 255 255
0.2830871 0.86735612 0.73166156 255 255 255
0.28304523 0.86713839 0.72984552 255 255 255
0.28041166 0.85955596 0.73010647 255 255 255
0.28037012 0.85934001 0.72830534 255 255 255
0.27320325 0.83888096 0.73229736 255 255 255
0.27057198 0.83131051 0.73265851 255 255 255
0.26891279 0.82650274 0.73224831 255 255 255
0.26725397 0.82169724 0.73185664 255 255 255
0.26656675 0.8196516 0.73067129 255 255 255
0.26652703 0.81944501 0.72894818 255 255 255
0.2577495 0.79443073 0.73463559 255 255 255
0.25674018 0.79147434 0.73379159 255 255 255
0.25670174 0.79127437 0.73212415 255 255 255
0.25666329 0.79107445 0.73045671 255 255 255
0.25597796 0.78903872 0.72935307 255 255 255
0.25529277 0.78700382 0.72825688 255 255 255
0.25363767 0.78221744 0.7280249 255 255 255
0.24907307 0.76917809 0.73039865 255 255 255
0.24774252 0.76531518 0.72993124 255 255 255
0.24641226 0.76145405 0.72947866 255 255 255
0.23991127 0.7429294 0.73372948 255 255 255
0.23922874 0.74090815 0.73274648 255 255 255
0.23854633 0.73888773 0.73177099 255 255 255
0.23786412 0.73686826 0.73080289 255 255 255
0.23718207 0.73484957 0.72984219 255 255 255
0.23585422 0.7310009 0.72949362 255 255 255
0.23581846 0.73081499 0.72794318 255 255 255
0.23190801 0.7196489 0.73006505 255 255 255
0.23058136 0.71580648 0.72976846 255 255 255
0.22860946 0.71013671 0.73010623 255 255 255
0.2279291 0.70812696 0.72921979 255 255 255
0.22660349 0.70428985 0.72896779 255 255 255
0.2243102 0.69771284 0.72967649 255 255 255
0.22169484 0.69022518 0.73072839 255 255 255
0.22166093 0.69004887 0.72925782 255 255 255
0.22065936 0.68713284 0.72874987 255 255 255
0.21933554 0.68330514 0.72857583 255 255 255
0.21930192 0.68313038 0.72711819 255 255 255
0.21410955 0.66835445 0.7308839 255 255 255
0.21407664 0.66818321 0.72945601 255 255 255
0.21339905 0.66618776 0.72868842 255 255 255
0.21336621 0.666017 0.72726429 255 255 255
0.21333338 0.66584623 0.72584009 255 255 255
0.20653415 0.64653486 0.73146641 255 255 255
0.2065022 0.64636874 0.73008126 255 255 255
