ply
format ascii 1.0
comment PCL generated
element vertex 1345
property float x
property float y
property float z
element camera 0
property float view_px
property float view_py
property float view_pz
property float x_axisx
property float x_axisy
property float x_axisz
property float y_axisx
property float y_axisy
property float y_axisz
property float z_axisx
property float z_axisy
property float z_axisz
property float focal
property float scalex
property float scaley
property float centerx
property float centery
property int viewportx
property int viewporty
property float k1
property float k2
end_header
-0.014353877 0.46002087 0.76080614
-0.014386905 0.45795506 0.7608735
-0.014391607 0.45768857 0.75994968
-0.014396308 0.45742211 0.75902581
-0.014401013 0.45715564 0.758102
-0.014405714 0.45688918 0.75717819
-0.014410416 0.45662272 0.75625437
-0.014415121 0.45635626 0.75533056
-0.014419822 0.45608979 0.75440669
-0.014424523 0.45582333 0.75348294
-0.014429228 0.45555687 0.75255907
-0.01443393 0.45529041 0.75163525
-0.014438631 0.45502391 0.75071144
-0.014443336 0.45475745 0.74978757
-0.014448037 0.45449099 0.74886382
-0.014452739 0.45422453 0.74793994
-0.014457444 0.45395806 0.74701613
-0.014462145 0.4536916 0.74609232
-0.014466846 0.45342514 0.74516851
-0.014471551 0.45315868 0.74424469
-0.014448294 0.45467085 0.74225783
-0.014411105 0.45706975 0.73973036
-0.014415851 0.4568007 0.73879755
-0.014420601 0.45653164 0.73786473
-0.014425347 0.45626259 0.73693192
-0.01441616 0.45688024 0.73545861
-0.014420917 0.45661065 0.73452401
-0.014439592 0.45545542 0.73413348
-0.014444342 0.45518637 0.73320073
-0.008863112 0.71424502 0.72804976
-0.0089034159 0.71197891 0.72742146
-0.010789031 0.60612404 0.76883948
-0.010861477 0.60205412 0.7691862
-0.010884026 0.6007849 0.76840025
-0.01092316 0.59858513 0.76800203
-0.010945665 0.59731859 0.76722503
-0.011001317 0.59419167 0.76722717
-0.011023769 0.59292823 0.76646101
-0.011046203 0.59166574 0.76569843
-0.011101721 0.58854616 0.76572567
-0.011223355 0.58171529 0.76734334
-0.011245659 0.58046007 0.76660591
-0.011267947 0.57920599 0.76587212
-0.011273703 0.57887989 0.7647416
-0.011461021 0.56836218 0.76803416
-0.011516163 0.56526381 0.76813507
-0.011521788 0.56494498 0.76702976
-0.011527414 0.56462616 0.76592433
-0.011533042 0.56430733 0.76481903
-0.01155513 0.56306463 0.76412475
-0.011560747 0.56274635 0.76302117
-0.012867866 0.4893029 0.76500922
-0.012889018 0.48811308 0.76449829
-0.012893977 0.4878321 0.76352412
-0.013234822 0.46868509 0.76581335
-0.01325571 0.46751028 0.76535451
-0.013260486 0.46723968 0.76441634
-0.013265261 0.46696907 0.7634781
-0.013286112 0.46579632 0.76302648
-0.013306947 0.46462455 0.76257843
-0.013343817 0.46255279 0.76262414
-0.013348559 0.46228424 0.76169312
-0.013353297 0.46201569 0.7607621
-0.013422156 0.45814896 0.76181334
-0.013426857 0.45788249 0.76088953
-0.013431562 0.45761603 0.75996572
-0.013436263 0.45734957 0.75904191
-0.013440965 0.45708311 0.75811803
-0.01344567 0.45681664 0.75719422
-0.013450371 0.45655018 0.75627041
-0.013455072 0.45628372 0.7553466
-0.013459777 0.45601723 0.75442278
-0.013464479 0.45575076 0.75349891
-0.01346918 0.4554843 0.75257516
-0.013473885 0.45521784 0.75165129
-0.013478586 0.45495138 0.75072747
-0.013483288 0.45468491 0.74980366
-0.013487993 0.45441845 0.74887979
-0.013492694 0.45415199 0.74795598
-0.013497395 0.45388553 0.74703217
-0.013502097 0.45361903 0.74610835
-0.013506802 0.45335257 0.74518454
-0.013511503 0.45308611 0.74426073
-0.013484513 0.45459801 0.74227393
-0.013446467 0.45672745 0.73881376
-0.013451217 0.45645839 0.73788095
-0.013455963 0.45618933 0.73694813
-0.01344491 0.45680684 0.73547482
-0.013449667 0.45653728 0.73454022
-0.013470208 0.45538217 0.73414969
-0.013474958 0.45511311 0.73321688
-0.0074197482 0.71453518 0.72945583
-0.0074267816 0.71413648 0.72807372
-0.0074708182 0.71187061 0.72744536
-0.0095859822 0.60509866 0.76923859
-0.0096474122 0.60196239 0.76920646
-0.0096718278 0.60069335 0.76842046
-0.0096962322 0.59942532 0.76763809
-0.009739073 0.59722739 0.76724523
-0.0098187719 0.5931704 0.76763493
-0.0098430868 0.59190756 0.7668705
-0.0098673757 0.59064573 0.7661097
-0.0099469107 0.58659816 0.76653177
-0.010026367 0.5825547 0.76696813
-0.010068955 0.58037114 0.76662558
-0.01009311 0.57911718 0.76589173
-0.010098865 0.57879108 0.76476121
-0.010306725 0.56827492 0.76805341
-0.010367474 0.56517702 0.76815426
-0.010391453 0.5639329 0.76745456
-0.010397071 0.56361461 0.76635098
-0.010402689 0.56329626 0.76524746
-0.010426639 0.56205416 0.76455498
-0.010432245 0.56173635 0.76345319
-0.011853656 0.48922628 0.76502615
-0.011876674 0.48803657 0.76451516
-0.011881633 0.4877556 0.76354104
-0.012239985 0.46951532 0.76535028
-0.012262752 0.46834013 0.76488966
-0.012285495 0.46716601 0.76443255
-0.012290271 0.46689537 0.76349437
-0.012312992 0.4657228 0.76304269
-0.012353629 0.46364969 0.76308298
-0.012394225 0.46157873 0.76313043
-0.012398954 0.46131071 0.76220125
-0.012421597 0.46014273 0.76176578
-0.012462109 0.45807642 0.76182938
-0.012466813 0.45780995 0.76090556
-0.012471514 0.45754349 0.75998175
-0.012494087 0.45637915 0.7595588
-0.012498779 0.45611322 0.75863683
-0.012485621 0.45674407 0.75721025
-0.012490325 0.45647761 0.75628644
-0.012495028 0.45621115 0.75536263
-0.012499729 0.45594469 0.75443882
-0.012504432 0.45567822 0.75351501
-0.012509134 0.45541176 0.75259113
-0.012513837 0.4551453 0.75166732
-0.012500754 0.45577201 0.75022644
-0.012505466 0.45550501 0.74930084
-0.012492409 0.45613018 0.74785453
-0.012497131 0.45586267 0.74692708
-0.012501851 0.45559517 0.74599969
-0.012506573 0.45532766 0.74507225
-0.012511292 0.45506018 0.7441448
-0.012516014 0.45479268 0.74321741
-0.012503015 0.45541424 0.74175853
-0.012477085 0.45665419 0.73882997
-0.012481833 0.45638514 0.73789716
-0.012468901 0.45700303 0.7364257
-0.012473658 0.45673344 0.7354911
-0.012513734 0.45469204 0.73564094
-0.012518475 0.45442349 0.73470998
-0.012523213 0.45415494 0.73377895
-0.0059834179 0.71442664 0.72947985
-0.0059904512 0.71402794 0.72809768
-0.006038228 0.71176237 0.72746933
-0.0083866734 0.60407358 0.76963764
-0.0084333476 0.60187066 0.76922673
-0.0084596295 0.60060173 0.76844072
-0.008485904 0.59933388 0.76765835
-0.008532485 0.5971362 0.76726538
-0.0086196531 0.59307981 0.76765496
-0.0086458307 0.59181708 0.76689053
-0.0086719897 0.59055543 0.76612973
-0.0087589938 0.58650839 0.76655161
-0.0088459235 0.58246553 0.76698786
-0.0088922475 0.58028221 0.76664525
-0.0089182686 0.57902837 0.76591134
-0.0089240242 0.57870233 0.76478088
-0.0091524292 0.56818771 0.76807272
-0.0092592519 0.5632388 0.7689811
-0.0092648584 0.56292099 0.76787937
-0.0092704687 0.56260324 0.76677763
-0.0092760753 0.56228542 0.76567584
-0.0092816856 0.56196761 0.76457411
-0.0092872921 0.56164986 0.76347232
-0.010859374 0.48824105 0.76550627
-0.010864332 0.48796007 0.76453209
-0.010869291 0.48767909 0.76355797
-0.011261264 0.46944135 0.76536667
-0.011285899 0.46826634 0.76490599
-0.01131051 0.46709231 0.76444888
-0.011315286 0.4668217 0.7635107
-0.011339875 0.46564925 0.76305896
-0.011384247 0.46357644 0.76309919
-0.011428578 0.46150574 0.76314658
-0.011453094 0.4603374 0.76270926
-0.011457814 0.46006989 0.76178187
-0.011502065 0.45800385 0.76184547
-0.011506768 0.45773739 0.7609216
-0.011511469 0.45747092 0.75999779
-0.011535913 0.45630676 0.75957483
-0.011540605 0.4560408 0.75865281
-0.011525577 0.45667154 0.75722635
-0.01153028 0.45640507 0.75630248
-0.011534983 0.45613861 0.75537866
-0.011539685 0.45587215 0.75445485
-0.011544388 0.45560569 0.75353104
-0.011549089 0.45533922 0.75260723
-0.011553792 0.45507273 0.75168335
-0.011558495 0.45480627 0.75075954
-0.011543555 0.45543233 0.74931693
-0.011528626 0.45605734 0.74787062
-0.011533348 0.45578983 0.74694318
-0.011538068 0.45552233 0.74601579
-0.01154279 0.45525485 0.74508834
-0.01154751 0.45498735 0.74416089
-0.011532636 0.45560929 0.74270386
-0.011537367 0.45534128 0.74177462
-0.011561673 0.45418483 0.74137866
-0.011507703 0.45658094 0.73884618
-0.011512451 0.45631188 0.73791337
-0.01149765 0.45692962 0.73644191
-0.011502407 0.45666006 0.73550731
-0.011546217 0.4546189 0.7356571
-0.011550957 0.45435038 0.73472607
-0.011555696 0.45408183 0.73379511
-0.0045470838 0.7143181 0.72950387
-0.004598612 0.71205175 0.72887182
-0.0046056304 0.71165413 0.72749329
-0.0072133373 0.60211587 0.77041531
-0.0072192866 0.60177892 0.76924706
-0.0072474387 0.60051012 0.76846099
-0.0072977822 0.59831119 0.76806259
-0.0073924642 0.59425271 0.76844299
-0.0074205305 0.59298921 0.76767498
-0.0074707475 0.59079683 0.76729995
-0.0075430926 0.58767754 0.76732332
-0.007571077 0.58641863 0.7665714
-0.0076211896 0.58423257 0.76621795
-0.0076933969 0.58112097 0.76626831
-0.0077212993 0.57986671 0.76553261
-0.0077270623 0.57954013 0.76440024
-0.007754935 0.57828742 0.76366997
-0.0081142951 0.56315225 0.76900029
-0.0081199016 0.5628345 0.7678985
-0.0081475843 0.56159216 0.76720417
-0.0081531834 0.56127489 0.76610416
-0.0081587825 0.56095767 0.76500422
-0.0081643816 0.56064039 0.76390427
-0.00984703 0.48816454 0.7655232
-0.0098519884 0.48788357 0.76454902
-0.0098787267 0.4866952 0.76404154
-0.0099054482 0.48550785 0.7635377
-0.0099103879 0.48522791 0.76256716
-0.010282543 0.46936741 0.76538301
-0.010330748 0.46728924 0.76540339
-0.010357222 0.46611589 0.76494801
-0.010361988 0.46584582 0.76401162
-0.010388436 0.46467394 0.76356173
-0.010414861 0.46350318 0.76311541
-0.01044127 0.46233344 0.76267266
-0.010489315 0.46026456 0.76272535
-0.010494035 0.45999706 0.76179796
-0.01054202 0.45793131 0.76186144
-0.010546723 0.45766485 0.76093763
-0.010551425 0.45739838 0.76001382
-0.010556128 0.45713192 0.75909001
-0.010560831 0.45686546 0.75816619
-0.010565532 0.456599 0.75724232
-0.010570236 0.45633253 0.75631851
-0.010574939 0.45606604 0.7553947
-0.01057964 0.45579958 0.75447088
-0.010584343 0.45553312 0.75354707
-0.010589045 0.45526665 0.7526232
-0.010593748 0.45500019 0.75169945
-0.010598451 0.45473373 0.75077558
-0.010581642 0.45535964 0.74933296
-0.010564847 0.4559845 0.74788672
-0.010569569 0.45571703 0.74695933
-0.010574289 0.45544952 0.74603188
-0.01057901 0.45518202 0.74510443
-0.01056226 0.45580435 0.74364918
-0.010566989 0.45553631 0.74272001
-0.01057172 0.45526829 0.74179077
-0.010597894 0.45411199 0.74139476
-0.010602614 0.45384449 0.74046737
-0.010543065 0.45623863 0.73792952
-0.010547813 0.45596957 0.73699671
-0.010552561 0.45570052 0.7360639
-0.010578703 0.4545458 0.73567331
-0.010583444 0.45427725 0.73474228
-0.010588182 0.45400873 0.73381126
-0.0030625034 0.7160781 0.7287814
-0.0031660143 0.71194345 0.72889572
-0.0031971391 0.7106126 0.72789401
-0.0059992764 0.60202414 0.77043557
-0.0060052257 0.60168713 0.76926732
-0.0060352441 0.60041851 0.76848125
-0.0060893167 0.59821987 0.7680828
-0.0062155332 0.59323138 0.7688489
-0.0062454622 0.59196842 0.76808262
-0.006347483 0.58791786 0.76848805
-0.0063773412 0.58665854 0.76773441
-0.0063831601 0.58632886 0.76659131
-0.0064370092 0.5841431 0.76623774
-0.006490821 0.58195949 0.76589137
-0.0065445956 0.57977778 0.76555228
-0.0065503586 0.5794512 0.76441991
-0.0065800902 0.57819867 0.76368964
-0.0069693383 0.56306577 0.76901937
-0.0069989022 0.56182307 0.76832318
-0.0070045013 0.56150579 0.76722324
-0.0070340391 0.56026465 0.76653242
-0.0070396308 0.55994785 0.76543427
-0.0070212986 0.56055397 0.76392335
-0.008834688 0.48808804 0.76554006
-0.0088396464 0.48780707 0.76456594
-0.0088918991 0.48571157 0.76452512
-0.0089204796 0.48452482 0.76402307
-0.00892541 0.48424539 0.76305431
-0.0093557611 0.46721557 0.76541966
-0.0094076693 0.46513969 0.76544714
-0.0094124265 0.46487013 0.76451254
-0.0094171837 0.46460053 0.76357794
-0.0094690137 0.46252885 0.76361984
-0.0094972812 0.4613598 0.76317883
-0.0095020104 0.46109179 0.76224965
-0.0095302537 0.45992422 0.76181406
-0.0095584765 0.45875773 0.7613821
-0.009563189 0.45849073 0.76045644
-0.0095913801 0.45732582 0.76002985
-0.0095960833 0.45705935 0.75910604
-0.0096007865 0.45679289 0.75818223
-0.0096054878 0.45652643 0.75725842
-0.009610191 0.45625997 0.75633454
-0.0096148942 0.4559935 0.75541073
-0.0095961709 0.45662186 0.75397712
-0.0096008815 0.45635486 0.75305152
-0.009629 0.45519412 0.75263929
-0.0096337032 0.45492765 0.75171542
-0.0096150171 0.45555392 0.75027466
-0.0095963459 0.45617917 0.7488302
-0.0096010659 0.4559117 0.74790281
-0.0096057877 0.45564419 0.74697542
-0.0096338633 0.45448598 0.74657214
-0.0096385758 0.45421898 0.74564654
-0.0095966104 0.45573136 0.74366534
-0.0096013397 0.45546335 0.7427361
-0.0096060708 0.45519531 0.74180692
-0.0096341129 0.45403916 0.74141085
-0.0096388329 0.45377165 0.74048346
-0.0096435547 0.45350417 0.73955601
-0.0096017104 0.45500976 0.73755145
-0.0096064489 0.45474121 0.73662049
-0.0096111875 0.45447269 0.73568946
-0.0096391812 0.45331916 0.73530239
-0.0096439105 0.45305115 0.73437321
-0.0016224366 0.71596926 0.72880542
-0.0017334204 0.71183521 0.72891963
-0.0047273133 0.60413545 0.77087057
-0.0047852043 0.60193241 0.77045584
-0.0047911536 0.6015954 0.76928759
-0.0047970992 0.60125846 0.76811934
-0.0048549194 0.59905946 0.76771903
-0.0050164107 0.59314078 0.76886892
-0.0050741192 0.59094799 0.7684902
-0.0051577035 0.58782798 0.76850796
-0.0051894281 0.58656877 0.7677542
-0.005195247 0.5862391 0.7666111
-0.0052528288 0.58405358 0.76625752
-0.0053362455 0.58094287 0.76630771
-0.0053678807 0.57968885 0.76557195
-0.0053736437 0.57936227 0.76443958
-0.0053794067 0.57903564 0.76330727
-0.0058243815 0.56297922 0.7690385
-0.0058558118 0.5617367 0.76834226
-0.005913049 0.55957091 0.76805699
-0.0060218591 0.55555975 0.76859713
-0.0060274042 0.55524558 0.76750797
-0.0078223441 0.48801154 0.76555699
-0.0078273024 0.48773056 0.76458287
-0.0078832917 0.48563534 0.76454198
-0.0079137422 0.48444876 0.76403987
-0.0079186726 0.48416933 0.76307112
-0.0084618516 0.46416384 0.76594621
-0.0084665995 0.46389478 0.7650134
-0.0084713474 0.46362573 0.76408058
-0.0085014962 0.46245575 0.76363599
-0.0085316356 0.46128681 0.76319498
-0.0085617546 0.46011889 0.7627576
-0.0085664745 0.45985138 0.76183021
-0.0085965656 0.45868504 0.76139814
-0.0086012781 0.45841804 0.76047254
-0.0086313356 0.45725328 0.76004589
-0.0086360388 0.45698681 0.75912207
-0.0086407419 0.45672035 0.75819826
-0.0086454432 0.45645389 0.75727445
-0.0086501464 0.45618743 0.75635064
-0.0086548496 0.45592096 0.75542676
-0.0086595509 0.45565447 0.75450295
-0.0086642541 0.45538801 0.75357914
-0.0086689554 0.45512155 0.75265533
-0.0086736586 0.45485508 0.75173151
-0.0086531062 0.45548123 0.75029075
-0.0086325668 0.45610633 0.74884629
-0.0086372867 0.45583886 0.7479189
-0.0086420085 0.45557135 0.74699152
-0.0086719524 0.45441329 0.74658823
-0.0086766649 0.4541463 0.74566263
-0.0086561702 0.45476884 0.74420923
-0.008660892 0.45450133 0.74328184
-0.008665612 0.45423386 0.74235439
-0.0086703338 0.45396635 0.741427
-0.0086750537 0.45369884 0.74049956
-0.0086797755 0.45343134 0.73957217
-0.0086341929 0.45493665 0.73756766
-0.0086389314 0.4546681 0.73663664
-0.0086688045 0.45351422 0.73624778
-0.0086735357 0.45324621 0.73531854
-0.0086782649 0.45297816 0.73438931
-0.00018236972 0.71586043 0.7288295
-0.00030082278 0.71172696 0.72894359
-0.0035095159 0.60404342 0.77089089
-0.0035711434 0.60184062 0.77047616
-0.0035770927 0.60150367 0.76930785
-0.0035830382 0.60116667 0.7681396
-0.0035889838 0.60082972 0.76697135
-0.0038172919 0.59305012 0.76888895
-0.003934307 0.58899808 0.7692852
-0.0039956961 0.58680874 0.7689172
-0.004001515 0.58647901 0.76777411
-0.0040350873 0.58522099 0.76702392
-0.0040686522 0.58396411 0.76627731
-0.0041576698 0.58085382 0.76632738
-0.0041634422 0.58052665 0.76519322
-0.00419694 0.57927334 0.76445925
-0.0042027049 0.57894671 0.76332694
-0.0042084679 0.57862014 0.76219463
-0.0047127232 0.56165028 0.76836139
-0.004773695 0.55948478 0.768076
-0.0048899781 0.55547422 0.76861608
-0.0048955232 0.55516005 0.76752687
-0.0048457514 0.55669099 0.7656123
-0.0048513133 0.5563758 0.76451957
-0.0068149604 0.48765406 0.76459974
-0.0068473015 0.48646611 0.76409221
-0.0068522505 0.48618564 0.76311988
-0.0074924696 0.46409059 0.76596242
-0.0074972175 0.46382153 0.76502961
-0.0075019654 0.46355247 0.7640968
-0.0075339824 0.46238261 0.76365215
-0.0075659882 0.46121386 0.76321113
-0.0075979736 0.46004605 0.76277369
-0.0076026935 0.45977855 0.7618463
-0.0076346528 0.45861235 0.76141423
-0.0076665897 0.4574472 0.76098573
-0.007671291 0.45718074 0.76006198
-0.0076759942 0.45691428 0.75913811
-0.0077078976 0.45575115 0.75871682
-0.0077125914 0.45548522 0.75779486
-0.0076901019 0.45611486 0.75636661
-0.007694805 0.4558484 0.75544286
-0.0076995064 0.45558193 0.75451899
-0.0077042095 0.45531547 0.75359517
-0.0077089109 0.45504901 0.75267136
-0.007713614 0.45478255 0.75174755
-0.0076911934 0.45540854 0.75030679
-0.0076687858 0.45603353 0.74886239
-0.0076735057 0.45576602 0.74793506
-0.0076511279 0.45638949 0.74648523
-0.0076829474 0.45523101 0.74608016
-0.0076876692 0.45496351 0.74515277
-0.0076923892 0.454696 0.74422532
-0.007697111 0.45442849 0.74329793
-0.0077018309 0.45416102 0.74237049
-0.0077065527 0.45389351 0.7414431
-0.0077112727 0.45362601 0.74051565
-0.0077159945 0.4533585 0.73958826
-0.0076666791 0.45486352 0.73758382
-0.0076714177 0.454595 0.73665279
-0.0077031571 0.45344126 0.73626387
-0.0077078883 0.45317322 0.73533463
-0.0077126175 0.45290521 0.73440546
0.0012576971 0.71575159 0.72885358
0.0011317749 0.71161866 0.72896755
-0.002291711 0.60395139 0.77091122
-0.0022976771 0.60361344 0.76973939
-0.0023036413 0.60327542 0.76856756
-0.0023689754 0.60107493 0.76815987
-0.0024639349 0.59794587 0.76814336
-0.0026181694 0.59295952 0.76890898
-0.0028019622 0.58704865 0.77008009
-0.002837427 0.58578974 0.76932633
-0.0028432366 0.58546054 0.76818502
-0.0028490461 0.58513141 0.76704371
-0.0028844699 0.58387464 0.7662971
-0.0028902721 0.58354592 0.76515758
-0.0028960723 0.58321726 0.76401806
-0.0030202288 0.57918441 0.76447892
-0.0030259937 0.57885784 0.76334661
-0.003386613 0.56743115 0.76705837
-0.0035400763 0.56248838 0.76797503
-0.0036343429 0.55939871 0.76809502
-0.0036990102 0.5572356 0.76781684
-0.0037045721 0.55692035 0.76672405
-0.0037396587 0.55568278 0.76604396
-0.0037452113 0.55536813 0.76495302
-0.0058318786 0.4866702 0.76508147
-0.0058660768 0.4854829 0.76457566
-0.0058710184 0.48520297 0.76360512
-0.0058759581 0.48492303 0.76263458
-0.0064599793 0.46609184 0.76594949
-0.0064647458 0.46582174 0.7650131
-0.0064986739 0.46464992 0.76456124
-0.0065034311 0.46438035 0.76362664
-0.0065373275 0.46321017 0.7631802
-0.0065712072 0.46204096 0.76273727
-0.0066050682 0.46087286 0.76229805
-0.0066097993 0.46060485 0.76136881
-0.0066727381 0.45853963 0.76143026
-0.006706547 0.45737463 0.76100183
-0.0067112483 0.45710817 0.76007795
-0.0067450292 0.45594469 0.75965488
-0.0067497212 0.45567876 0.75873286
-0.0067544151 0.45541281 0.75781083
-0.006759109 0.45514685 0.75688881
-0.0067638028 0.45488092 0.75596678
-0.0067394637 0.45550939 0.75453502
-0.0067441668 0.45524293 0.75361121
-0.0067488682 0.45497647 0.75268739
-0.0067535713 0.45470998 0.75176358
-0.0067002848 0.4562282 0.74980593
-0.0066760182 0.45685256 0.7483598
-0.0066807494 0.45658451 0.74743056
-0.0066854786 0.4563165 0.74650139
-0.0066902079 0.45604849 0.74557215
-0.006694939 0.45578045 0.74464297
-0.0066996682 0.45551243 0.74371374
-0.0067043975 0.45524442 0.7427845
-0.0067091286 0.45497641 0.74185532
-0.0067138579 0.45470837 0.74092609
-0.0066607837 0.45621464 0.73892713
-0.0066655315 0.45594558 0.73799431
-0.0066413954 0.45656264 0.73652303
-0.0066461526 0.45629308 0.73558843
-0.0066509116 0.45602348 0.73465383
-0.006742239 0.45310026 0.73535079
-0.0067469683 0.45283222 0.73442161
0.002697764 0.71564275 0.72887766
0.0026275385 0.7133767 0.72824168
-0.0010739136 0.60385936 0.7709316
-0.0010798797 0.60352141 0.76975971
-0.0010858439 0.60318339 0.76858789
-0.0011549108 0.6009832 0.76818019
-0.001255475 0.59785455 0.76816356
-0.0014190469 0.59286892 0.768929
-0.0016140472 0.58695889 0.7701
-0.0016513783 0.58570015 0.76934612
-0.0016571879 0.58537096 0.76820481
-0.0016629975 0.58504176 0.7670635
-0.0017002914 0.58378512 0.76631689
-0.0017060935 0.58345646 0.76517737
-0.0017118938 0.5831278 0.76403785
-0.0018435232 0.57909548 0.76449859
-0.0022266638 0.56766433 0.76818848
-0.0022323169 0.56734395 0.76707768
-0.0023951214 0.56240183 0.76799417
-0.0025264062 0.55838883 0.76852131
-0.0025633946 0.55714977 0.7678358
-0.0026003607 0.55591178 0.76715386
-0.0026059132 0.55559713 0.76606292
-0.0026114658 0.55528241 0.76497191
-0.0048214011 0.48659384 0.76509833
-0.0048574712 0.4854067 0.76459253
-0.0048624128 0.48512673 0.76362193
-0.0048673525 0.4848468 0.76265144
-0.0054820925 0.46628839 0.76690215
-0.005486859 0.46601829 0.7659657
-0.0054916255 0.46574822 0.76502931
-0.00552742 0.46457651 0.76457751
-0.0055321772 0.46430695 0.76364291
-0.0055679437 0.46313691 0.76319635
-0.0056036897 0.46196786 0.76275349
-0.0056394208 0.46079987 0.7623142
-0.0056441519 0.46053186 0.76138496
-0.005710829 0.45846695 0.76144636
-0.0057465024 0.45730209 0.76101786
-0.0057512037 0.45703563 0.76009405
-0.005786851 0.4558723 0.75967085
-0.0057915431 0.45560634 0.75874889
-0.0057962369 0.45534039 0.75782681
-0.0058009308 0.45507446 0.75690484
-0.0058056246 0.4548085 0.75598276
-0.0057794191 0.45543683 0.75455105
-0.0057841223 0.45517036 0.7536273
-0.0057888236 0.4549039 0.75270343
-0.0057935268 0.45463744 0.75177962
-0.0057982299 0.45437098 0.7508558
-0.0058029313 0.45410451 0.74993193
-0.005715102 0.45651156 0.74744672
-0.0057198312 0.45624354 0.74651754
-0.0057245605 0.4559755 0.7455883
-0.0057292916 0.45570749 0.74465907
-0.0057340208 0.45543948 0.74372983
-0.0057387501 0.45517144 0.74280065
-0.0057434812 0.45490342 0.74187142
-0.0057482105 0.45463541 0.74094224
-0.005722167 0.45525438 0.73947817
-0.0057269055 0.45498583 0.73854715
-0.0057008956 0.45560327 0.73707771
-0.0056748986 0.45621967 0.73560464
-0.0056796577 0.45595008 0.73467004
-0.0056844149 0.45568052 0.73373544
-0.0056891721 0.45541093 0.73280084
0.0040709022 0.7136668 0.72964787
0.0040638689 0.71326816 0.7282657
0.003989948 0.71100456 0.72763687
0.00013791956 0.60342938 0.76978004
6.5103173e-05 0.60122842 0.76936877
2.5739893e-05 0.59996045 0.76858252
-8.042343e-05 0.59683281 0.76856756
-0.00025332533 0.59184837 0.76933467
-0.00042613223 0.58686912 0.77011979
-0.00046532974 0.58561051 0.76936591
-0.00047113933 0.58528131 0.7682246
-0.00051031075 0.58402431 0.7674762
-0.00051611103 0.58369565 0.76633668
-0.00052191317 0.58336699 0.76519716
-0.00052771345 0.58303827 0.76405764
-0.0010667145 0.5678975 0.76931846
-0.0010723695 0.56757712 0.76820773
-0.0010780226 0.56725669 0.767097
-0.0012168661 0.56323957 0.76760787
-0.0014555026 0.55645549 0.76935476
-0.001494335 0.55521756 0.76867282
-0.0014998801 0.55490345 0.76758361
-0.0015054252 0.55458927 0.76649439
-0.0016107224 0.55151027 0.76664841
-0.0016162395 0.55119771 0.76556468
-0.0038109273 0.48651749 0.7651152
-0.0038488638 0.48533046 0.76460934
-0.0038538054 0.48505053 0.76363879
-0.0038587451 0.48477057 0.76266825
-0.004508974 0.46621487 0.76691842
-0.0045137405 0.46594477 0.76598197
-0.004518507 0.46567467 0.76504558
-0.0045232736 0.46540457 0.76410919
-0.0045609288 0.46423355 0.76365912
-0.0045985617 0.46306363 0.76321256
-0.0046361759 0.46189475 0.76276964
-0.0046409145 0.4616262 0.76183861
-0.0046785027 0.46045887 0.76140106
-0.0047817528 0.45749602 0.76195771
-0.004786456 0.45722955 0.76103389
-0.0047911573 0.45696306 0.76011008
-0.0048286729 0.45579988 0.75968689
-0.0048333649 0.45553395 0.75876486
-0.0048380587 0.455268 0.75784284
-0.0048427526 0.45500204 0.75692081
-0.0048474465 0.45473608 0.75599879
-0.0048193727 0.45536429 0.75456715
-0.0048240758 0.45509782 0.75364327
-0.0048287772 0.45483136 0.75271946
-0.0048334803 0.4545649 0.75179565
-0.0048381835 0.45429841 0.75087184
-0.0048428848 0.45403194 0.74994802
-0.004847588 0.45376548 0.74902415
-0.0048522912 0.45349902 0.74810034
-0.0048569925 0.45323256 0.74717653
-0.0047636423 0.4556345 0.74467522
-0.0047683716 0.45536649 0.74374598
-0.0047731008 0.45509848 0.74281681
-0.0047451742 0.45571834 0.74135637
-0.0047499146 0.45544979 0.74042535
-0.0047546532 0.45518127 0.73949432
-0.0047593918 0.45491272 0.7385633
-0.0047641322 0.45464417 0.73763227
-0.0047362614 0.45526096 0.73616111
-0.0047410093 0.45499191 0.7352283
-0.0047131665 0.45560712 0.73375165
-0.0047179237 0.45533752 0.73281705
0.0055072363 0.71355826 0.72967184
0.005500203 0.71315962 0.72828972
0.0054225419 0.71089625 0.72766078
0.0013557207 0.60333735 0.76980042
0.001279166 0.60113668 0.76938903
0.0012379363 0.59986889 0.76860273
0.0011261702 0.59674162 0.76858771
0.00094392896 0.59175789 0.7693547
0.00076178275 0.58677936 0.77013969
0.00072071701 0.58552086 0.76938576
0.00071490742 0.58519167 0.76824445
0.0006738659 0.58393484 0.76749599
0.00066806562 0.58360612 0.76635647
0.00066226348 0.58327746 0.76521695
0.00065646321 0.5829488 0.76407743
8.7579712e-05 0.56781024 0.76933777
5.9250742e-06 0.56532037 0.76792341
2.8871e-07 0.56500101 0.76681626
-0.00032175519 0.55636978 0.76937371
-0.00036245398 0.55513203 0.76869166
-0.00036799908 0.55481791 0.7676025
-0.00037354417 0.55450374 0.76651335
-0.00048444793 0.55142516 0.76666725
-0.00048996508 0.55111259 0.76558352
-0.0025513954 0.49307382 0.76286423
-0.0027655903 0.48734805 0.76466739
-0.0028402563 0.48525426 0.7646262
-0.0028451979 0.48497429 0.76365566
-0.0035406221 0.46587121 0.76599824
-0.0035453886 0.46560112 0.76506186
-0.0035501551 0.46533105 0.76412547
-0.0035549216 0.46506095 0.76318902
-0.0036291778 0.46299037 0.76322877
-0.0036686584 0.46182162 0.76278579
-0.003673397 0.4615531 0.76185477
-0.0037128553 0.46038592 0.76141721
-0.0038217101 0.45742345 0.76197374
-0.0038264133 0.45715699 0.76104993
-0.0038311146 0.45689052 0.76012611
-0.0038358178 0.45662406 0.75920224
-0.003840521 0.4563576 0.75827849
-0.0038452223 0.45609114 0.75735462
-0.0038499255 0.45582467 0.7564308
-0.0038546268 0.45555821 0.75550699
-0.00385933 0.45529172 0.75458312
-0.0038640331 0.45502526 0.75365937
-0.0038687345 0.45475879 0.7527355
-0.0038734376 0.45449233 0.75181168
-0.0038781408 0.45422587 0.75088787
-0.0038828421 0.45395941 0.74996406
-0.0038875453 0.45369294 0.74904025
-0.0038922485 0.45342648 0.74811637
-0.0038969498 0.45316002 0.74719256
-0.0037979949 0.45556155 0.74469137
-0.0038027242 0.45529351 0.74376214
-0.0038074534 0.45502549 0.7428329
-0.0038121846 0.45475748 0.74190372
-0.0038169138 0.45448944 0.74097449
-0.0038216449 0.45422143 0.74004531
-0.0038263742 0.45395342 0.73911607
-0.0038311034 0.4536854 0.73818684
-0.0038013533 0.45430252 0.73671746
-0.0037716255 0.45491865 0.73524445
-0.0037763752 0.4546496 0.73431164
-0.0038500242 0.45261332 0.73447001
0.0070179626 0.7153163 0.72894979
0.0070109088 0.71491659 0.7275641
0.0026910212 0.60637993 0.76986289
0.0026106909 0.604177 0.76944238
0.0025675539 0.6029073 0.76864892
0.0025615878 0.60256928 0.76747704
0.0025556237 0.60223126 0.76630521
0.0021411832 0.59166741 0.76937473
0.0019496996 0.58668959 0.77015948
0.0019067619 0.58543122 0.7694056
0.0018638466 0.58417404 0.76865524
0.0018580463 0.58384532 0.76751578
0.001852246 0.58351666 0.76637626
0.0011508502 0.56491411 0.76683545
0.00088604726 0.55813092 0.76857829
0.00080644339 0.55596942 0.76830167
0.00080088899 0.55565476 0.76721072
0.00075833499 0.55441821 0.76653224
0.00064183213 0.55134004 0.76668608
0.00063631497 0.55102748 0.76560229
-0.0011298079 0.50380552 0.76427007
-0.0011717025 0.50260627 0.76372111
-0.0012135748 0.50140816 0.76317561
-0.0012186617 0.50111991 0.76217633
-0.0015278477 0.49299648 0.76288128
-0.0015695915 0.49180561 0.76236105
-0.0016113147 0.49061576 0.76184434
-0.0016163103 0.49033269 0.76086301
-0.0025675017 0.46579769 0.76601452
-0.0025722682 0.46552759 0.76507807
-0.0025770348 0.4652575 0.76414168
-0.0025818013 0.4649874 0.76320529
-0.0026597939 0.46291712 0.76324499
-0.0027011447 0.46174851 0.76280195
-0.0027058832 0.46147996 0.76187098
-0.0027472079 0.46031293 0.76143336
-0.0028616637 0.45735091 0.76198977
-0.0028663669 0.45708445 0.76106596
-0.0028710682 0.45681798 0.76014215
-0.0028757714 0.45655152 0.75921834
-0.0028804746 0.45628503 0.75829446
-0.0028851759 0.45601857 0.75737065
-0.0029263999 0.45485723 0.75695288
-0.0029310938 0.45459127 0.7560308
-0.0029357858 0.45432532 0.75510877
-0.0029404797 0.45405939 0.75418675
-0.002908688 0.45468625 0.75275159
-0.0029133912 0.45441979 0.75182772
-0.0029180944 0.45415333 0.7509039
-0.0029227957 0.45388684 0.74998009
-0.0029274989 0.45362037 0.74905628
-0.0029322021 0.45335391 0.74813247
-0.0029369034 0.45308745 0.7472086
-0.0028323475 0.45548856 0.74470747
-0.0028370768 0.45522055 0.74377823
-0.002841806 0.45495251 0.74284905
-0.0028465372 0.4546845 0.74191982
-0.0028512664 0.45441648 0.74099064
-0.0028559975 0.45414847 0.7400614
-0.0028607268 0.45388043 0.73913217
-0.002865456 0.45361242 0.73820299
-0.0028338395 0.45422941 0.73673362
-0.0028022416 0.4548454 0.73526067
-0.0028069913 0.45457634 0.73432785
-0.0028843768 0.45254034 0.7344861
0.0083798971 0.71334118 0.72971982
0.0084509775 0.71480775 0.72758818
0.0039144251 0.60628748 0.76988328
0.0038693938 0.60501635 0.76908439
0.0037853532 0.60281527 0.76866925
0.003701346 0.60061622 0.76826131
0.0036954004 0.60027921 0.76709306
0.0033384375 0.59157693 0.7693947
0.0030986201 0.58567083 0.7705667
0.0030928105 0.58534163 0.76942539
0.0030480288 0.58408451 0.76867503
0.0030422285 0.58375585 0.76753551
0.0030364282 0.58342719 0.76639605
0.0030695722 0.58402485 0.76486015
0.002301408 0.56482714 0.7668547
0.002023533 0.55804497 0.76859736
0.0020179618 0.55772924 0.76750278
0.0020123888 0.55741352 0.76640821
0.0019290838 0.5552544 0.76613867
0.0017681103 0.55125493 0.76670492
0.0016460549 0.54818034 0.76686943
0.0016405657 0.54786932 0.765791
7.7351928e-05 0.5079506 0.76449955
-4.3801963e-05 0.50492686 0.76484019
-8.7579712e-05 0.50372678 0.76428753
-0.00013134442 0.50252765 0.76373845
-0.00017508492 0.50132966 0.76319301
-0.0001801718 0.50104141 0.76219368
-0.00049426965 0.49348733 0.76486826
-0.00049928389 0.49320322 0.76388335
-0.00050429814 0.49291912 0.76289845
-0.00054791011 0.4917284 0.7623781
-0.00055291504 0.49144483 0.76139498
-0.0015943814 0.46572414 0.76603079
-0.0015991479 0.46545404 0.7650944
-0.0016039144 0.46518397 0.76415795
-0.0016086809 0.46491387 0.76322156
-0.0016519316 0.46374378 0.76277316
-0.001733629 0.46167538 0.7628181
-0.0017383676 0.46140686 0.76188707
-0.0017815586 0.46023998 0.76144946
-0.0018247347 0.45907405 0.76101547
-0.0019063205 0.45701188 0.76108199
-0.0019110218 0.45674542 0.76015818
-0.0019157249 0.45647895 0.75923437
-0.0019204281 0.45621249 0.75831056
-0.0019251294 0.45594603 0.75738668
-0.0019682255 0.45478481 0.75696886
-0.0020112973 0.45362467 0.7565546
-0.0020159818 0.45335922 0.75563437
-0.0019823052 0.45398697 0.75420278
-0.0019869991 0.45372102 0.75328076
-0.0019916929 0.45345506 0.75235873
-0.0019963849 0.45318913 0.75143671
-0.0019627493 0.4538143 0.74999613
-0.0019674525 0.45354784 0.74907231
-0.0019721556 0.45328137 0.74814844
-0.001976857 0.45301491 0.74722463
-0.0018666983 0.45541558 0.74472362
-0.0018714275 0.45514756 0.74379438
-0.0018761568 0.45487955 0.7428652
-0.0018808879 0.45461151 0.74193597
-0.0018856172 0.4543435 0.74100673
-0.0018903483 0.45407549 0.74007756
-0.0018950775 0.45380747 0.73914832
-0.0018998068 0.45353943 0.73821914
-0.0018663239 0.45415631 0.73674977
-0.0018328577 0.45477214 0.73527688
-0.0018376075 0.45450309 0.73434407
-0.0019187275 0.45246735 0.73450226
0.0053954162 0.612472 0.7700206
0.0053075179 0.61026436 0.76958203
0.0051378291 0.60619503 0.76990378
0.005131837 0.60585546 0.76872647
0.0050031524 0.60272324 0.76868963
0.0049154107 0.60052449 0.76828158
0.0049094651 0.60018748 0.76711333
0.0043313466 0.58683974 0.77134228
0.0043255277 0.58651006 0.77019918
0.0043197088 0.58618033 0.76905608
0.0042730495 0.58492279 0.76830387
0.0042672399 0.58459359 0.76716256
0.0042614304 0.5842644 0.76602131
0.0042556208 0.5839352 0.76488
0.0034519657 0.56474018 0.76687396
0.0031610169 0.55795902 0.76861632
0.0031554457 0.55764329 0.76752174
0.0031498726 0.55732757 0.76642722
0.0031035654 0.55609024 0.76574516
0.0028943866 0.55116987 0.76672375
0.0027667303 0.54809564 0.76688814
0.002761241 0.54778463 0.76580971
0.0011270512 0.50787127 0.76451707
0.00095975213 0.50393724 0.76530784
0.00095464662 0.50364798 0.76430494
0.00094954111 0.50335872 0.76330203
0.0009039212 0.50216031 0.76275474
0.000898825 0.50187153 0.76175362
0.00044829398 0.49159384 0.76580375
0.00044329837 0.49131081 0.76482242
0.00047877617 0.49193475 0.76337832
0.00047377311 0.49165118 0.76239514
0.00046876818 0.49136761 0.76141202
-0.00041452795 0.47043261 0.76458853
-0.00041933917 0.47015992 0.76364315
-0.00038378127 0.47078857 0.76221526
-0.00038860179 0.47051534 0.76126802
-0.00043377653 0.46934187 0.76080698
-0.00064032897 0.46457022 0.76230139
-0.00076611154 0.46160227 0.76283431
-0.00077085011 0.46133375 0.76190329
-0.00081591122 0.46016699 0.76146561
-0.00090126693 0.45810351 0.7615267
-0.00094627775 0.45693934 0.76109803
-0.00095097907 0.45667288 0.76017421
-0.00095568225 0.45640641 0.7592504
-0.00096038543 0.45613995 0.75832653
-0.00096508674 0.45587349 0.75740278
-0.0010100473 0.45471239 0.75698483
-0.0010549892 0.4535524 0.75657058
-0.0010596737 0.45328698 0.75565034
-0.001024127 0.45391455 0.75421882
-0.0010288209 0.4536486 0.75329673
-0.0010335147 0.45338267 0.75237477
-0.0010382067 0.45311671 0.75145268
-0.0010429006 0.45285076 0.75053066
-0.0010475945 0.45258483 0.74960864
-0.0010121129 0.45320883 0.74816453
-0.0010168143 0.45294234 0.74724066
-0.0010215174 0.45267588 0.74631685
-0.00091996975 0.45427051 0.74102288
-0.00092943013 0.45373449 0.73916447
-0.00093415938 0.45346648 0.73823524
-0.00085872784 0.45496795 0.73622584
-0.00086347573 0.45469889 0.73529303
-0.00086822547 0.45442984 0.73436022
-0.00095308013 0.4523944 0.73451841
0.0066300258 0.61237872 0.77004123
0.0065383911 0.61017132 0.76960266
0.0064467993 0.60796618 0.76917118
0.0064407885 0.60762554 0.76799035
0.0063492451 0.60542345 0.76756966
0.0063432511 0.60508388 0.76639247
0.0061235279 0.60009575 0.76713359
0.0062030572 0.60161716 0.76519442
0.0055134445 0.5864203 0.77021903
0.0055076256 0.58609056 0.76907593
0.0055018086 0.58576083 0.76793283
0.0054532867 0.58450395 0.76718241
0.0054474771 0.58417475 0.7660411
0.0054416675 0.58384556 0.76489985
0.0042503066 0.55663484 0.76794964
0.0042447448 0.55631965 0.76685691
0.0042391811 0.55600446 0.76576412
0.0040206667 0.55108476 0.76674253
0.0040151495 0.55077213 0.76565874
0.0020019766 0.50385851 0.76532525
0.0019544717 0.5026592 0.76477432
0.0019493755 0.50237042 0.7637732
0.0019866619 0.50299066 0.76231652
0.0019815564 0.5027014 0.76131362
0.0019340888 0.50150418 0.7607699
0.0014631096 0.49123374 0.76483947
0.001458114 0.49095067 0.76385814
0.0014531184 0.49066761 0.76287681
0.0014481246 0.49038455 0.76189542
0.00056792982 0.47035837 0.76460493
0.00056311861 0.47008568 0.7636596
0.00055830553 0.46981299 0.76271415
0.00055349432 0.4695403 0.76176882
0.00050645322 0.46836743 0.76130956
0.0003327895 0.4644967 0.76231766
0.00020140223 0.46152917 0.76285046
0.0001544673 0.46036205 0.762411
0.00014973618 0.460094 0.76148176
6.0645863e-05 0.45803079 0.7615428
1.376681e-05 0.45686677 0.76111412
9.0654939e-06 0.45660031 0.76019025
4.3623149e-06 0.45633385 0.75926644
-3.4086406e-07 0.45606738 0.75834262
-5.0421804e-06 0.45580092 0.75741875
-9.7453594e-06 0.45553446 0.756495
-5.6564808e-05 0.45437405 0.75607884
-6.1256811e-05 0.45410809 0.75515682
-2.3853034e-05 0.45473507 0.7537235
-7.0644543e-05 0.45357621 0.75331277
-7.5338408e-05 0.45331025 0.75239074
-3.7960708e-05 0.45393565 0.75095201
-8.4724277e-05 0.45277837 0.75054669
-8.9418143e-05 0.45251241 0.74962461
-5.2068383e-05 0.45313627 0.74818057
-5.6769699e-05 0.4528698 0.74725676
-6.1472878e-05 0.45260334 0.74633288
5.9867278e-05 0.45500162 0.74382663
3.6217272e-05 0.45366153 0.73918056
2.6756898e-05 0.45312548 0.73732215
2.2027642e-05 0.45285746 0.73639297
1.7296523e-05 0.45258942 0.73546374
0.00013833493 0.45497054 0.73289824
0.012688888 0.71301556 0.72979182
0.0078585874 0.61194271 0.76887381
0.0076739378 0.60787344 0.76919168
0.0075786412 0.60567057 0.76876736
0.0075280145 0.60440034 0.7679702
0.007477412 0.60313123 0.76717663
0.0074714385 0.60279268 0.76600295
0.0074208584 0.60152513 0.76521474
0.0067459587 0.58725905 0.76985162
0.0067401305 0.58692884 0.76870674
0.0066897236 0.58567107 0.76795268
0.0066393316 0.58441436 0.76720226
0.006633522 0.58408517 0.76606095
0.005385926 0.55654901 0.76796865
0.0053803641 0.55623382 0.76687586
0.0053748004 0.55591863 0.76578307
0.0030442085 0.50377977 0.76534265
0.0029948298 0.50258058 0.76479173
0.0029897336 0.5022918 0.76379061
0.0029846393 0.50200307 0.76278949
0.0029795431 0.50171429 0.76178837
0.0029744469 0.5014255 0.76078725
0.0024829265 0.49115667 0.76485652
0.0024779309 0.49087361 0.76387513
0.0024729352 0.49059054 0.7628938
0.0024679415 0.49030748 0.76191247
0.0021978375 0.48459318 0.76373994
0.0021928977 0.48431325 0.76276934
0.0021437909 0.48312911 0.76227057
0.0021388605 0.48284969 0.76130182
0.0015503895 0.47028413 0.76462138
0.001501454 0.46910983 0.7641567
0.0014966503 0.46883765 0.76321316
0.0014918465 0.46856549 0.76226956
0.0014870446 0.46829331 0.76132596
0.0013499931 0.46532264 0.76184607
0.001124844 0.46055707 0.76335633
0.0011201147 0.46028906 0.76242709
0.0011153836 0.46002105 0.76149786
0.0010225605 0.4579581 0.76155889
0.00097381137 0.45679423 0.76113009
0.00096911006 0.45652777 0.76020634
0.00096440688 0.45626131 0.75928247
0.0009597037 0.45599484 0.75835866
0.00095500238 0.45572838 0.75743484
0.0009502992 0.45546192 0.75651097
0.00094559602 0.45519546 0.75558722
0.00094089471 0.45492896 0.75466335
0.00093619153 0.4546625 0.75373954
0.00093149021 0.45439604 0.75281572
0.00092678703 0.45412958 0.75189185
0.00087814778 0.45297191 0.75148469
0.00087345392 0.45270595 0.75056267
0.00086876005 0.45243999 0.74964064
0.00090797618 0.45306373 0.7481966
0.00090327486 0.45279726 0.74727273
0.00089857168 0.45253077 0.74634892
0.00089386851 0.45226431 0.74542511
0.00099713542 0.45332053 0.73826754
0.0009924043 0.45305249 0.7373383
0.00098767504 0.45278448 0.73640907
0.00098294392 0.45251647 0.73547983
0.0011095852 0.45489714 0.73291445
0.014125222 0.71290702 0.72981584
0.0089536123 0.60905331 0.7700184
0.0089010764 0.60778069 0.76921219
0.0087555349 0.6046471 0.76916605
0.0087030549 0.60337758 0.76837063
0.0086505879 0.60210913 0.76757878
0.0086446237 0.60177112 0.76640689
0.0086386576 0.6014331 0.76523507
0.0081680547 0.59181112 0.7679354
0.0079299137 0.5868389 0.76872659
0.0078776367 0.5855813 0.76797253
0.0078253802 0.58432472 0.76722205
0.0078195706 0.58399552 0.76608074
0.0064751878 0.55554104 0.76839638
0.006423289 0.55430466 0.76771599
0.0064177439 0.55399048 0.76662683
0.004086433 0.50370097 0.76536006
0.0039890558 0.50159222 0.76526099
0.0039839689 0.50130397 0.76426172
0.0040250011 0.5019244 0.76280689
0.0039737951 0.50072753 0.76226306
0.0037382245 0.49590096 0.76355934
0.003687093 0.49470818 0.76302993
0.0035438202 0.49170312 0.76342952
0.0034927484 0.49051347 0.76291084
0.0034877546 0.49023041 0.76192951
0.0032064468 0.48451698 0.76375675
0.003201507 0.48423705 0.76278621
0.0031505283 0.48305303 0.76228738
0.0031455979 0.4827736 0.76131862
0.0031406656 0.48249418 0.76034987
0.0025376603 0.47048256 0.76558316
0.0025328472 0.47020987 0.76463783
0.0024820454 0.46903571 0.76417315
0.0024772417 0.46876356 0.76322949
0.0024724379 0.46849138 0.76228595
0.002467636 0.46821922 0.76134235
0.0024168789 0.46704763 0.76088661
0.0020904914 0.46048412 0.76337242
0.0020857621 0.46021608 0.76244324
0.0020810328 0.45994806 0.76151401
0.0020763017 0.45968005 0.76058483
0.0019338559 0.45672169 0.76114619
0.0019291546 0.45645523 0.76022232
0.0019244514 0.45618877 0.7592985
0.0019197483 0.45592228 0.75837469
0.0019150469 0.45565581 0.75745088
0.0019103438 0.45538935 0.75652707
0.0019056406 0.45512289 0.75560319
0.0019009393 0.45485643 0.75467938
0.0018962361 0.45458996 0.75375557
0.0018915348 0.4543235 0.75283176
0.0018868316 0.45405704 0.75190794
0.0018363222 0.45289949 0.75150073
0.0018316284 0.45263353 0.7505787
0.0018269364 0.4523676 0.74965668
0.0018680207 0.45299116 0.74821264
0.0018633194 0.4527247 0.74728882
0.0018586162 0.45245823 0.74636495
0.0018539131 0.45219177 0.7454412
0.0020541716 0.45501724 0.73720729
0.0020494219 0.45474818 0.73627448
0.002044674 0.45447913 0.73534167
0.0020399261 0.45421004 0.73440886
0.0020808373 0.45482376 0.73293066
0.015561553 0.71279848 0.7298398
0.010037431 0.60616475 0.77116275
0.0099830534 0.6048938 0.7703619
0.0099286977 0.60362393 0.76956463
0.0099227224 0.60328543 0.76839101
0.0098683853 0.6020171 0.76759911
0.0096690226 0.5979619 0.76796162
0.0094697326 0.59391087 0.76833856
0.0093671773 0.59172052 0.76795542
0.0091196951 0.58674902 0.7687465
0.0090655517 0.58549154 0.76799238
0.0090597328 0.58516181 0.76684928
0.0090539139 0.58483213 0.76570618
0.0076089371 0.55545539 0.76841533
0.0075551718 0.55421913 0.76773489
0.0074532218 0.55206299 0.76747042
0.0074476972 0.55174983 0.76638484
0.0050275493 0.50151378 0.76527834
0.0050224625 0.50122553 0.76427901
0.005065361 0.50184584 0.7628243
0.0050122887 0.50064903 0.76228046
0.0047673769 0.49582317 0.76357651
0.0047143791 0.49463055 0.7630471
0.0044696108 0.489813 0.76437187
0.0044166856 0.48862451 0.76385683
0.004363779 0.48743698 0.76334536
0.0042150542 0.48444074 0.76377362
0.0041142907 0.48235193 0.7637428
0.0041093696 0.48207301 0.76277584
0.0041044466 0.48179412 0.76180887
0.0040995255 0.4815152 0.76084197
0.0035201181 0.47040832 0.76559961
0.003515305 0.47013563 0.76465422
0.003462635 0.46896163 0.76418948
0.0034578312 0.46868944 0.76324594
0.0034530293 0.46841729 0.76230228
0.0034003947 0.46724534 0.76184475
0.0032521468 0.46427608 0.76236641
0.0030561406 0.46041113 0.76338857
0.0030514095 0.46014312 0.7624594
0.0030466802 0.45987508 0.76153016
0.0029941667 0.4587099 0.761096
0.0029416718 0.45754573 0.76066542
0.0028891992 0.45638266 0.76023841
0.002884496 0.4561162 0.75931454
0.0028797928 0.45584974 0.75839072
0.0028750915 0.45558327 0.75746691
0.0028703883 0.45531681 0.75654304
0.0028656852 0.45505035 0.75561929
0.002813274 0.45389086 0.7552048
0.0028085802 0.45362493 0.75428283
0.0028038863 0.45335898 0.75336075
0.0027991943 0.45309302 0.75243878
0.0027945004 0.45282707 0.7515167
0.0027898084 0.45256114 0.75059474
0.0027851146 0.45229518 0.74967265
0.0028280672 0.45291862 0.74822867
0.0028233621 0.45265216 0.74730486
0.0028186608 0.45238569 0.74638104
0.0028139595 0.45211923 0.74545717
0.0027998518 0.45131981 0.74268574
0.002923701 0.45290655 0.73737055
0.0029189717 0.45263854 0.73644137
0.0029142406 0.45237049 0.73551214
0.0030045621 0.45386773 0.73349226
0.017198974 0.71641898 0.72837269
0.01121057 0.60514057 0.77155775
0.011154333 0.60387027 0.77075869
0.011098118 0.60260111 0.7699632
0.011092151 0.60226309 0.76879132
0.01093551 0.59913599 0.76876479
0.010879355 0.59787047 0.76798189
0.01067259 0.59381998 0.76835865
0.0105663 0.59162992 0.76797545
0.010359662 0.5875867 0.76837742
0.010303648 0.58632886 0.76762146
0.01024765 0.58507204 0.76686913
0.010241831 0.58474231 0.76572609
0.009104548 0.56245959 0.7677803
0.0089486334 0.55937397 0.76789749
0.0089430436 0.55905724 0.76679933
0.0086870529 0.55413359 0.76775384
0.0085813664 0.55197769 0.76748931
0.0085758418 0.55166459 0.76640368
0.0085703153 0.55135149 0.7653181
0.0085647888 0.55103832 0.76423252
0.0060660411 0.50143528 0.76529574
0.0059612337 0.49932918 0.76520371
0.0059561655 0.499042 0.76420796
0.0058015715 0.49603102 0.76458406
0.0057965294 0.49574539 0.76359367
0.0057914872 0.49545974 0.7626034
0.0054377411 0.48882976 0.76485157
0.0054327641 0.48854774 0.76387382
0.0053779874 0.48736033 0.76336235
0.0051240865 0.48255488 0.76472652
0.0051191654 0.48227599 0.76375961
0.0050644707 0.48109335 0.7632643
0.005059557 0.48081496 0.76229912
0.0050546452 0.48053658 0.76133394
0.004502574 0.47033408 0.765616
0.0044977628 0.47006139 0.76467061
0.0044929497 0.4697887 0.76372522
0.0044384208 0.46861535 0.76326227
0.0044336189 0.46834317 0.76231867
0.0043294225 0.46627179 0.7623471
0.0042252671 0.46420252 0.76238269
0.004021788 0.46033815 0.76340473
0.0040170588 0.46007013 0.76247549
0.0040619876 0.46069962 0.76105309
0.003957944 0.45863706 0.76111209
0.003953224 0.45836955 0.76018465
0.0038492437 0.45631012 0.76025438
0.0038445406 0.45604366 0.75933063
0.0038398374 0.4557772 0.75840676
0.0038351361 0.45551074 0.75748295
0.0038304329 0.45524427 0.75655913
0.0038257297 0.45497778 0.75563526
0.0037714504 0.45381847 0.75522083
0.0037667584 0.45355251 0.75429881
0.0037620645 0.45328656 0.75337678
0.0037573706 0.4530206 0.75245476
0.0037526768 0.45275468 0.75153273
0.0037479829 0.45248872 0.75061071
0.003743289 0.45222276 0.74968868
0.0037881117 0.45284608 0.7482447
0.0037834067 0.45257959 0.74732089
0.0037787054 0.45231313 0.74639702
0.0037740041 0.45204666 0.74547327
0.0037693009 0.4517802 0.74454939
0.0037645977 0.45151374 0.74362558
0.0037598964 0.45124727 0.74270177
0.0038893502 0.45283356 0.7373867
0.0038846191 0.45256555 0.73645747
0.0038798898 0.45229754 0.73552823
0.0039739441 0.45379448 0.73350841
0.018642778 0.71630991 0.72839683
0.012432104 0.60504824 0.77157819
0.012374004 0.60377812 0.77077901
0.012315916 0.60250908 0.76998353
0.012309955 0.60217106 0.7688117
0.012147704 0.59904438 0.768785
0.012089679 0.59777898 0.76800209
0.011823373 0.59280056 0.76876408
0.011765422 0.59153926 0.76799554
0.011551315 0.58749664 0.76839733
0.011493431 0.58623898 0.76764137
0.011435563 0.58498228 0.76688898
0.011429744 0.58465254 0.76574588
0.010147421 0.56052732 0.76860964
0.010037886 0.55836546 0.76832348
0.010032305 0.55804926 0.76722711
0.0098189358 0.55404806 0.76777267
0.0097095128 0.55189246 0.76750815
0.0097039845 0.55157936 0.76642251
0.0096984599 0.55126619 0.76533699
0.0096410234 0.55003393 0.76466906
0.0096355025 0.54972136 0.76358527
0.0068925302 0.49743333 0.76612824
0.0068874806 0.49714717 0.76513612
0.006830724 0.49595329 0.76460123
0.0068256836 0.49566761 0.7636109
0.0067689475 0.49447528 0.76308143
0.0064538214 0.48875296 0.76486856
0.0064488444 0.48847094 0.7638908
0.0063921977 0.48728368 0.76337928
0.0061289575 0.48247895 0.76474333
0.006072389 0.48129594 0.76424617
0.0060674753 0.48101756 0.76328099
0.0060625616 0.48073918 0.76231587
0.0060576499 0.48046079 0.76135069
0.0060527381 0.48018238 0.76038551
0.0054802205 0.46998715 0.76468706
0.0054754075 0.46971446 0.76374161
0.0054190122 0.46854123 0.76327866
0.0054142084 0.46826908 0.76233506
0.0053062756 0.46619797 0.76236343
0.0051983837 0.464129 0.76239896
0.0051420722 0.46296042 0.76195216
0.0049827062 0.45999715 0.76249164
0.0049779769 0.45972914 0.76156241
0.004921725 0.45856422 0.76112819
0.0048654955 0.45740035 0.76069754
0.004860783 0.45713338 0.75977194
0.0048045851 0.45597109 0.7593466
0.004799882 0.45570463 0.75842279
0.0047951806 0.45543817 0.75749898
0.0047904775 0.4551717 0.75657517
0.0047857743 0.45490524 0.75565135
0.0047296267 0.45374605 0.75523686
0.0047249347 0.45348009 0.75431484
0.0047202408 0.45321414 0.75339282
0.0047155488 0.45294821 0.75247079
0.0046594441 0.45179164 0.7520653
0.0046547595 0.45152619 0.75114506
0.0046500769 0.45126078 0.75022483
0.0046453904 0.45099536 0.74930459
0.0047434513 0.45250705 0.74733692
0.0047387499 0.45224059 0.74641311
0.0047340486 0.45197412 0.7454893
0.0047293454 0.45170766 0.74456549
0.0047246423 0.4514412 0.74364161
0.0047199409 0.45117471 0.7427178
0.0047665518 0.4517937 0.74125952
0.0048131477 0.45241168 0.73979759
0.0048597269 0.45302862 0.73833203
0.0049062874 0.45364448 0.73686296
0.0049015488 0.45337594 0.73593193
0.0048968103 0.45310742 0.73500091
0.004943328 0.45372123 0.73352462
0.020086581 0.71620077 0.72842097
0.013653642 0.60495591 0.77159858
0.013539681 0.60275501 0.77117574
0.013533717 0.60241705 0.77000391
0.013527753 0.60207903 0.76883203
