ply
format ascii 1.0
comment PCL generated
element vertex 1403
property float x
property float y
property float z
element camera 0
property float view_px
property float view_py
property float view_pz
property float x_axisx
property float x_axisy
property float x_axisz
property float y_axisx
property float y_axisy
property float y_axisz
property float z_axisx
property float z_axisy
property float z_axisz
property float focal
property float scalex
property float scaley
property float centerx
property float centery
property int viewportx
property int viewporty
property float k1
property float k2
end_header
-0.014458895 0.88750607 0.75165826
-0.014467381 0.88702494 0.74999034
-0.014475875 0.88654387 0.74832243
-0.012644518 0.88574272 0.8002739
-0.01265287 0.88526946 0.79863292
-0.012661222 0.88479614 0.79699194
-0.012669574 0.88432282 0.79535103
-0.012677927 0.8838495 0.79371005
-0.01266662 0.8853206 0.7915774
-0.012674991 0.88484621 0.78993285
-0.012683358 0.88437188 0.7882883
-0.012691729 0.88389754 0.78664374
-0.012712169 0.88689047 0.76085597
-0.01272063 0.88641089 0.75919342
-0.012729093 0.88593137 0.75753093
-0.012708597 0.88833719 0.755023
-0.012717091 0.88785613 0.75335515
-0.012725577 0.88737506 0.75168717
-0.01273407 0.88689399 0.75001931
-0.012742557 0.88641286 0.7483514
-0.010939222 0.88561386 0.80030239
-0.010947574 0.88514054 0.79866141
-0.010955926 0.88466728 0.79702044
-0.010964278 0.88419396 0.79537952
-0.01097263 0.88372064 0.79373854
-0.010980982 0.88324738 0.79209757
-0.010989334 0.88277406 0.79045665
-0.010974329 0.88424277 0.78831685
-0.010984462 0.88675988 0.76088488
-0.010992922 0.88628036 0.75922233
-0.011001386 0.88580084 0.75755978
-0.010975301 0.88820624 0.75505197
-0.010983791 0.88772517 0.75338411
-0.010992277 0.88724405 0.75171614
-0.011000767 0.88676298 0.75004828
-0.011009257 0.88628191 0.7483803
-0.0092255808 0.88595831 0.80197179
-0.0092339329 0.88548499 0.80033088
-0.009242285 0.88501167 0.7986899
-0.0092506371 0.88453841 0.79704893
-0.0092589892 0.88406509 0.79540801
-0.0092673413 0.88359177 0.79376704
-0.0092756934 0.88311845 0.79212606
-0.0092840455 0.88264519 0.79048514
-0.0092652999 0.88411361 0.7883454
-0.0092567541 0.88662934 0.76091373
-0.0092652142 0.88614976 0.75925118
-0.0092736781 0.88567024 0.75758862
-0.0092821382 0.88519073 0.75592613
-0.009250477 0.88759416 0.75341308
-0.0092589632 0.88711309 0.7517451
-0.0092674531 0.88663203 0.75007725
-0.009275943 0.8861509 0.74840927
-0.0075202882 0.88582945 0.80200028
-0.0075286403 0.88535613 0.80035937
-0.0075369924 0.88488281 0.79871839
-0.0075453445 0.88440955 0.79707742
-0.0075536966 0.88393623 0.7954365
-0.0075620487 0.88346291 0.79379553
-0.0075704008 0.88298959 0.79215455
-0.0075787529 0.88251632 0.79051363
-0.0075290464 0.88649875 0.76094258
-0.0075375065 0.88601923 0.75928009
-0.0075459704 0.88553971 0.75761753
-0.0075544305 0.88506019 0.75595498
-0.0075628944 0.88458067 0.75429249
-0.0075256564 0.88698208 0.75177407
-0.0075341463 0.88650101 0.75010622
-0.0075426362 0.88601995 0.74843824
-0.0058066435 0.88617384 0.80366975
-0.0058149956 0.88570058 0.80202878
-0.0058233477 0.88522726 0.80038786
-0.0058316998 0.88475394 0.79874688
-0.0058400519 0.88428068 0.79710591
-0.005848404 0.88380736 0.79546499
-0.0058567561 0.88333404 0.79382402
-0.0058651082 0.88286072 0.79218304
-0.0058271848 0.88492101 0.76318294
-0.00583563 0.88444251 0.76152402
-0.0058440715 0.88396406 0.75986505
-0.0058182627 0.88540912 0.75764638
-0.0058267228 0.8849296 0.75598383
-0.0058351867 0.88445008 0.75432134
-0.0057923459 0.88685113 0.75180304
-0.0058008358 0.88637 0.75013512
-0.0058093257 0.88588893 0.74846721
-0.0041590519 0.8831197 0.80439758
-0.0041096993 0.88557172 0.80205727
-0.0041180514 0.8850984 0.80041635
-0.0041264035 0.88462508 0.79877537
-0.0041347556 0.88415176 0.7971344
-0.0041431077 0.8836785 0.79549348
-0.0041514598 0.88320518 0.79385251
-0.0041032135 0.88479072 0.76321173
-0.0041116588 0.88431227 0.76155281
-0.0041201003 0.88383377 0.75989389
-0.004090555 0.88527858 0.75767529
-0.0040990151 0.88479906 0.75601274
-0.004107479 0.88431954 0.75435019
-0.0040590353 0.88672012 0.75183201
-0.0040675253 0.88623905 0.75016409
-0.0040760152 0.88575798 0.74849617
-0.0024510324 0.88346303 0.80606151
-0.0024593584 0.88299125 0.80442595
-0.0024676844 0.88251954 0.8027904
-0.0024760067 0.88204777 0.80115485
-0.0024211109 0.88449621 0.79880387
-0.002429463 0.88402289 0.79716289
-0.0024461672 0.88307631 0.793881
-0.0023876876 0.88418198 0.76158166
-0.0023961291 0.88370347 0.75992268
-0.0023628511 0.88514799 0.75770414
-0.0023713112 0.88466847 0.75604159
-0.002379775 0.88418895 0.75437903
-0.0023257248 0.88658911 0.75186098
-0.0023342147 0.88610804 0.75019306
-0.0023427047 0.88562697 0.74852514
-0.00079730153 0.8813839 0.80655241
-0.00075967237 0.88286281 0.80445439
-0.0007679984 0.8823911 0.80281883
-0.0007763207 0.88191932 0.80118322
-0.00071581826 0.88436735 0.79883236
-0.00061821938 0.88597649 0.76105803
-0.00062667951 0.88549697 0.75939548
-0.00063514337 0.88501745 0.75773299
-0.0006436035 0.88453794 0.75607049
-0.00065206736 0.88405842 0.75440794
-0.00059241429 0.88645816 0.75188994
-0.00060090423 0.88597709 0.75022197
-0.00060939416 0.88549596 0.74855411
0.0009069629 0.88172644 0.80821276
0.0008986555 0.88125575 0.80658078
0.00089034811 0.88078505 0.80494881
0.00093169138 0.88226265 0.80284721
0.00092336908 0.88179088 0.80121166
0.00091504306 0.88131917 0.79957604
0.0011179522 0.88632548 0.76274943
0.0010602549 0.88392138 0.76163924
0.0010518134 0.88344294 0.75998032
0.0010925643 0.88488686 0.75776184
0.0010841042 0.88440734 0.75609934
0.0010756403 0.88392782 0.75443679
0.0011408925 0.88632715 0.75191891
0.0011324026 0.88584608 0.75025094
0.0011239126 0.88536501 0.74858308
0.0025494657 0.87964714 0.80869985
0.0025946051 0.8811276 0.80660909
0.0025862977 0.88065684 0.80497712
0.0025779903 0.88018614 0.80334514
0.0025696866 0.87971544 0.80171323
0.0026147403 0.88119072 0.79960448
0.0028456561 0.88619488 0.76277828
0.0027842261 0.88379109 0.76166803
0.0027757846 0.88331264 0.76000911
0.0028202683 0.88475633 0.75779068
0.0028118081 0.88427681 0.75612819
0.0028033443 0.88379729 0.7544657
0.0028742068 0.8861962 0.75194788
0.0028657168 0.88571507 0.7502799
0.0029100664 0.887151 0.7480346
0.0042416863 0.87951922 0.8087281
0.0042333975 0.8790496 0.80709976
0.0042822585 0.88052869 0.80500543
0.0042739511 0.88005799 0.80337352
0.0042656474 0.87958729 0.80174154
0.0045733638 0.88606435 0.76280713
0.0045649 0.88558483 0.76114464
0.0045564398 0.88510531 0.75948215
0.004547976 0.88462573 0.75781959
0.0046244934 0.88702732 0.75531262
0.0046160035 0.88654625 0.7536447
0.0046641268 0.88798398 0.75140661
0.0046556182 0.88750184 0.74973512
0.0046471097 0.88701975 0.74806356
0.0059339032 0.87939137 0.80875641
0.0059256144 0.87892169 0.80712801
0.0059782118 0.88040054 0.8050338
0.0059699044 0.87992984 0.80340183
0.0063010715 0.88593376 0.76283598
0.0062926076 0.88545424 0.76117349
0.0062841475 0.88497472 0.75951099
0.0062756836 0.8844952 0.75784844
0.0063578039 0.88689637 0.75534159
0.006349314 0.8864153 0.75367367
0.0063408278 0.88593417 0.75200576
0.0063926652 0.88737059 0.74976414
0.0063841566 0.88688844 0.74809265
0.0076261237 0.87926352 0.80878466
0.007617835 0.87879384 0.80715632
0.0076741651 0.88027239 0.80506217
0.0076658577 0.87980163 0.8034302
0.0081977732 0.89109623 0.76316524
0.0081250705 0.8886897 0.76204222
0.0081165805 0.88820863 0.76037431
0.0081080906 0.88772756 0.75870639
0.0080996007 0.88724643 0.75703847
0.0080911107 0.88676536 0.75537056
0.0080826208 0.88628429 0.75370264
0.0080741346 0.88580322 0.75203472
0.0081297122 0.88723934 0.74979317
0.0081212036 0.88675719 0.74812162
0.0093266331 0.87960529 0.81044132
0.0093183443 0.87913561 0.80881298
0.0093784258 0.88061494 0.8067224
0.0093701184 0.88014418 0.80509049
0.0096009821 0.88648766 0.80181587
0.0099348202 0.89096498 0.76319426
0.0098583847 0.88855869 0.76207113
0.0098498948 0.88807762 0.76040328
0.0098414049 0.88759655 0.7587353
0.0098329149 0.88711548 0.75706744
0.009824425 0.88663441 0.75539947
0.009815935 0.88615328 0.75373161
0.0098752677 0.88759017 0.75149369
0.0098667592 0.88710803 0.74982214
0.0098582506 0.88662595 0.74815065
0.011018846 0.87947738 0.81046957
0.011010557 0.8790077 0.80884123
0.011074379 0.88048673 0.80675077
0.011066072 0.88001603 0.8051188
0.011310007 0.8863585 0.80184448
0.011591695 0.88842773 0.7621001
0.011583205 0.88794667 0.76043224
0.011574715 0.88746554 0.75876427
0.011566225 0.88698447 0.75709641
0.011557736 0.8865034 0.75542843
0.011549246 0.88602233 0.75376058
0.011612311 0.88745892 0.75152266
0.011603802 0.88697678 0.74985123
0.011595294 0.88649464 0.74817967
0.012719356 0.87981921 0.81212622
0.012786951 0.88130003 0.81004304
0.012778644 0.88082927 0.80841106
0.012770336 0.88035858 0.80677915
0.013027411 0.88670367 0.80351758
0.013325002 0.88829672 0.76212907
0.013316512 0.88781565 0.76046121
0.013308022 0.88733459 0.75879323
0.013299532 0.88685352 0.75712538
0.013291042 0.88637239 0.7554574
0.013282552 0.88589132 0.75378954
0.013274066 0.88541025 0.75212157
0.013340846 0.88684553 0.74988019
0.013332337 0.88636339 0.7482087
0.014419861 0.88016099 0.81378287
0.014411572 0.8796913 0.81215453
0.014482904 0.88117182 0.81007135
0.014474597 0.88070112 0.80843943
0.014545862 0.88217854 0.80634552
0.015066803 0.88864684 0.76382595
0.015058313 0.88816577 0.76215804
0.014931139 0.88480145 0.76131785
0.014922678 0.88432193 0.7596553
0.015032843 0.88672251 0.75715429
0.015024353 0.88624144 0.75548637
0.015015863 0.88576037 0.75381845
0.015007377 0.88527924 0.75215054
0.014998887 0.88479817 0.75048262
0.014990397 0.8843171 0.7488147
0.016112082 0.88003314 0.81381118
0.016103793 0.87956345 0.81218278
0.016095504 0.87909377 0.81055439
0.01617055 0.88057297 0.80846775
0.016245555 0.8820501 0.80637389
0.016800113 0.88851583 0.76385492
0.01666731 0.88515037 0.76300919
0.016658846 0.88467085 0.7613467
0.016650386 0.88419133 0.75968415
0.016641922 0.88371181 0.75802159
0.016633462 0.8832323 0.7563591
0.016749173 0.88562936 0.75384742
0.016740687 0.88514829 0.7521795
0.016732197 0.88466722 0.75051159
0.016723707 0.88418609 0.74884367
0.017812587 0.88037491 0.81546783
0.017804302 0.87990522 0.81383944
0.01779601 0.87943554 0.81221104
0.017787725 0.87896585 0.81058264
0.017866507 0.88044482 0.80849612
0.017945241 0.88192165 0.80640233
0.018533424 0.88838488 0.76388389
0.018395014 0.88501984 0.76303804
0.01838655 0.88454032 0.76137555
0.01837809 0.8840608 0.75971305
0.01836963 0.88358128 0.7580505
0.018361166 0.8831017 0.75638795
0.018482484 0.88549834 0.75387639
0.018473998 0.88501728 0.75220847
0.018465508 0.88453621 0.75054055
0.018457018 0.88405514 0.74887264
0.019513093 0.88071668 0.81712443
0.019504808 0.880247 0.81549609
0.019496519 0.87977737 0.81386769
0.01948823 0.87930769 0.81223929
0.019479942 0.878838 0.81061095
0.01956246 0.88031667 0.80852443
0.020131186 0.88536876 0.7647295
0.020122722 0.88488925 0.76306695
0.020114258 0.88440973 0.7614044
0.020105798 0.88393021 0.7597419
0.020097338 0.88345069 0.75807935
0.020088874 0.88297117 0.7564168
0.02008041 0.88249165 0.7547543
0.020207305 0.88488632 0.75223744
0.020198815 0.8844052 0.75056952
0.020190328 0.88392413 0.74890161
0.021213602 0.88105851 0.81878114
0.021205314 0.88058883 0.81715274
0.021197025 0.88011914 0.81552434
0.021188736 0.87964946 0.81389594
0.021180451 0.87917978 0.8122676
0.021172158 0.87871009 0.8106392
0.02185889 0.88523823 0.76475835
0.021756351 0.88283652 0.7636438
0.021747906 0.88235801 0.76198483
0.021739461 0.88187951 0.76032591
0.021825042 0.88332015 0.75810826
0.021816581 0.88284057 0.75644571
0.021808118 0.88236105 0.75478315
0.021940615 0.88475531 0.75226641
0.021932125 0.88427424 0.75059843
0.021923639 0.88379318 0.74893057
0.022758245 0.87799966 0.81946409
0.022897534 0.88046092 0.81718099
0.022889242 0.87999123 0.81555259
0.022880957 0.87952161 0.81392425
0.022970982 0.88100177 0.81184506
0.022962674 0.88053101 0.81021309
0.023235783 0.87790167 0.7650423
0.023227386 0.87742573 0.76339239
0.023463435 0.88174927 0.76035476
0.023454987 0.88127077 0.75869584
0.023544289 0.88271004 0.75647455
0.023535825 0.88223052 0.754812
0.023527361 0.881751 0.75314951
0.023518901 0.88127148 0.75148702
0.023656946 0.88366216 0.74895954
0.024453126 0.8783403 0.82111526
0.024444863 0.87787223 0.81949228
0.024589751 0.88033307 0.81720924
0.024581462 0.87986338 0.8155809
0.024573177 0.8793937 0.81395251
0.024666935 0.88087356 0.81187338
0.024658628 0.88040286 0.8102414
0.024950415 0.87777209 0.76507097
0.024942018 0.87729621 0.76342106
0.025035132 0.87873983 0.76121604
0.025178961 0.88114047 0.75872457
0.025271997 0.88257945 0.75650346
0.025263533 0.88209993 0.75484091
0.025255069 0.88162041 0.75317836
0.025246609 0.88114089 0.75151587
0.025238149 0.88066137 0.74985337
0.026298545 0.88114452 0.82049429
0.02629026 0.88067484 0.8188659
0.026281968 0.88020515 0.8172375
0.026273683 0.87973547 0.81560916
0.026265394 0.87926584 0.81398082
0.026362889 0.88074541 0.81190169
0.026354581 0.88027471 0.81026971
0.026770331 0.87956387 0.76455188
0.026761916 0.87908691 0.76289833
0.0267535 0.87860996 0.76124477
0.026902933 0.88101023 0.75875342
0.026999705 0.88244891 0.75653231
0.026991241 0.88196939 0.75486976
0.026982777 0.88148987 0.75320721
0.026974317 0.88101035 0.75154471
0.026965857 0.88053077 0.74988222
0.028007343 0.88195598 0.82377934
0.027999051 0.8814863 0.82215095
0.027990766 0.88101667 0.82052255
0.027982477 0.88054699 0.81889421
0.027974188 0.8800773 0.81726581
0.0279659 0.87960762 0.81563747
0.028067149 0.88108796 0.81356204
0.028168358 0.88256627 0.81147939
0.028488703 0.87943399 0.76458055
0.028480284 0.87895703 0.762927
0.028471868 0.87848014 0.7612735
0.028626904 0.88087994 0.75878221
0.028727408 0.88231832 0.75656116
0.028882343 0.88471246 0.75405014
0.028873853 0.88423139 0.75238222
0.028865363 0.88375026 0.7507143
0.028856874 0.88326919 0.74904639
0.029707849 0.88229781 0.82543594
0.02969956 0.88182813 0.8238076
0.029691271 0.88135844 0.8221792
0.029682986 0.88088876 0.8205508
0.029674694 0.88041908 0.81892246
0.029779717 0.8819012 0.81685424
0.02977141 0.88143051 0.81522232
0.029763103 0.88095981 0.81359035
0.029868048 0.88243783 0.81150776
0.030367762 0.8817066 0.76212883
0.03035932 0.88122815 0.76046991
0.030463576 0.8826673 0.75825256
0.030624144 0.88506252 0.75574702
0.030615654 0.88458145 0.7540791
0.030607164 0.88410038 0.75241119
0.030598674 0.88361931 0.75074327
0.030702796 0.88505071 0.74849892
0.031408355 0.88263959 0.82709259
0.031224366 0.87923485 0.82609689
0.031216107 0.87876672 0.82447392
0.031383492 0.88123053 0.82220745
0.031375203 0.88076091 0.82057911
0.031366915 0.88029122 0.81895071
0.031358626 0.87982154 0.81732237
0.031467363 0.88130236 0.81525064
0.031459056 0.88083166 0.81361866
0.031567737 0.88230938 0.81153619
0.032100178 0.88205481 0.7638166
0.032091733 0.88157636 0.76215768
0.032199744 0.88301629 0.75994396
0.032191284 0.88253677 0.75828141
0.03218282 0.88205719 0.75661886
0.032348964 0.8844505 0.75410807
0.032340474 0.88396937 0.75244009
0.032331984 0.8834883 0.75077224
0.032439843 0.8849194 0.74852794
0.033100575 0.88251173 0.8271209
0.032910984 0.87910742 0.82612509
0.032902721 0.87863928 0.82450211
0.033075709 0.88110268 0.82223576
0.03306742 0.880633 0.82060736
0.033059135 0.88016331 0.81897902
0.033050843 0.87969363 0.81735063
0.033042558 0.87922394 0.81572223
0.033824146 0.88192457 0.76384544
0.033815704 0.88144606 0.76218647
0.033927452 0.88288569 0.75997281
0.033918992 0.88240618 0.75831032
0.033910528 0.88192666 0.75664777
0.033902064 0.88144714 0.75498521
0.034073785 0.88383842 0.75246906
0.034065295 0.88335735 0.75080121
0.034056805 0.88287622 0.74913323
0.034792792 0.88238382 0.82714915
0.034784503 0.88191414 0.82552075
0.034776218 0.88144445 0.82389241
0.034767926 0.88097477 0.82226402
0.034759641 0.88050514 0.82063568
0.034751352 0.88003546 0.81900728
0.034743063 0.87956578 0.81737888
0.034734774 0.87909609 0.81575054
0.035548121 0.88179427 0.76387417
0.035539676 0.88131577 0.76221526
0.03565516 0.88275516 0.76000166
0.035646699 0.88227564 0.75833917
0.035638236 0.88179606 0.75667661
0.035629772 0.88131654 0.75501406
0.035807095 0.8837074 0.75249803
0.035798606 0.88322634 0.75083017
0.035790116 0.88274527 0.7491622
0.036300734 0.87978876 0.82942742
0.036292475 0.87932062 0.82780445
0.036284212 0.87885249 0.82618141
0.036275953 0.87838435 0.8245585
0.036460146 0.88084692 0.82229233
0.036451858 0.88037723 0.82066393
0.036443569 0.87990755 0.81903553
0.036435284 0.87943786 0.81740713
0.037408251 0.88406318 0.76501811
0.037399791 0.88358361 0.76335561
0.037391327 0.88310409 0.76169306
0.037382863 0.88262457 0.76003051
0.037374403 0.88214505 0.75836802
0.037557382 0.88453859 0.75586283
0.037548892 0.88405752 0.75419492
0.037540406 0.88357645 0.752527
0.037531916 0.88309532 0.75085908
0.03765098 0.8845256 0.74861503
0.03799561 0.8801294 0.83107859
0.037987351 0.87966126 0.82945561
0.037979089 0.87919313 0.82783258
0.03797083 0.87872505 0.82620966
0.037962567 0.87825692 0.82458663
0.037954308 0.87778878 0.82296365
0.037946045 0.87732065 0.82134068
0.037937786 0.87685251 0.81971771
0.037929524 0.87638444 0.81809473
0.039135959 0.88393259 0.76504695
0.039127495 0.88345307 0.76338446
0.039119035 0.88297355 0.76172197
0.039110571 0.88249403 0.76005942
0.039102111 0.88201451 0.75839686
0.039290693 0.88440758 0.7558918
0.039282203 0.88392651 0.75422388
0.039273717 0.88344544 0.75255597
0.039396532 0.88487649 0.75031555
0.039388023 0.88439435 0.74864399
0.039682224 0.8800019 0.83110678
0.039877739 0.88246983 0.82886231
0.03986945 0.88200021 0.82723397
0.039657444 0.87859756 0.8262378
0.039649181 0.87812942 0.82461482
0.039640922 0.87766135 0.82299185
0.039632663 0.87719321 0.82136887
0.039488658 0.87477392 0.82018173
0.039480418 0.87430686 0.81856233
0.040863663 0.88380206 0.7650758
0.040855207 0.88332248 0.76341331
0.040846743 0.88284296 0.76175082
0.040838279 0.88236344 0.76008826
0.041032493 0.8847577 0.75758868
0.041024007 0.88427663 0.75592077
0.041015513 0.88379556 0.75425285
0.041007027 0.88331443 0.75258493
0.041133575 0.88474518 0.75034451
0.041125074 0.8842631 0.74867302
0.041368842 0.87987447 0.83113492
0.041569956 0.88234198 0.82889062
0.041561671 0.8818723 0.82726222
0.041344061 0.87847012 0.82626599
0.041335799 0.87800199 0.82464302
0.041327536 0.87753385 0.82301998
0.041319273 0.87706578 0.82139707
0.041171543 0.87464672 0.82020986
0.041163296 0.87417966 0.8185904
0.042591371 0.88367146 0.76510471
0.042582914 0.88319194 0.76344216
0.04257445 0.88271242 0.76177967
0.04277429 0.88510782 0.75928557
0.042765804 0.88462675 0.75761759
0.04275731 0.88414562 0.75594974
0.042748824 0.88366455 0.75428176
0.042740338 0.88318348 0.7526139
0.042870626 0.88461393 0.7503736
0.042862117 0.88413179 0.74870205
0.043063715 0.88021511 0.83278608
0.04305546 0.87974703 0.83116311
0.043047197 0.8792789 0.82954013
0.043038934 0.87881076 0.82791716
0.043030672 0.87834263 0.82629418
0.043022409 0.87787455 0.82467115
0.043014154 0.87740642 0.82304817
0.043005891 0.87693828 0.8214252
0.042997628 0.87647015 0.81980222
0.042989373 0.87600207 0.81817925
0.044319078 0.88354093 0.76513356
0.044310614 0.88306135 0.76347101
0.044302158 0.88258183 0.76180851
0.0445076 0.8849768 0.75931454
0.044499114 0.88449574 0.75764656
0.04449062 0.88401467 0.7559787
0.044482134 0.8835336 0.75431073
0.044473641 0.88305247 0.75264287
0.044607669 0.88448268 0.75040257
0.044599161 0.88400054 0.74873108
0.044758596 0.88055581 0.83443725
0.044750333 0.88008767 0.83281428
0.04474207 0.87961954 0.8311913
0.044733807 0.87915146 0.82956827
0.044725552 0.87868333 0.82794535
0.04471729 0.87821519 0.82632232
0.044709027 0.87774706 0.82469934
0.044700764 0.87727892 0.82307637
0.044692509 0.87681085 0.82145339
0.044684246 0.87634271 0.81983042
0.044675983 0.87587458 0.81820744
0.046046786 0.88341033 0.76516247
0.046038322 0.88293082 0.76349992
0.046029858 0.8824513 0.76183736
0.046240911 0.88484585 0.7593435
0.046232425 0.88436472 0.75767553
0.046223931 0.88388366 0.75600767
0.046215445 0.88340259 0.75433969
0.046353221 0.88483351 0.75210309
0.046344712 0.88435137 0.7504316
0.046336204 0.88386929 0.7487601
0.046294361 0.87846899 0.83486867
0.046286121 0.87800187 0.83324927
0.046428688 0.8794921 0.83121943
0.046420425 0.87902397 0.82959652
0.046412162 0.87855583 0.82797348
0.046403907 0.87808776 0.82635051
0.046395645 0.87761962 0.82472754
0.046387382 0.87715149 0.82310456
0.046379119 0.87668335 0.82148159
0.046370864 0.87621528 0.81985855
0.046588592 0.87867057 0.81757677
0.04776603 0.88280028 0.76352876
0.047757566 0.8823207 0.76186621
0.047974221 0.88471484 0.75937241
0.047965735 0.88423377 0.7577045
0.047957242 0.8837527 0.75603658
0.047948755 0.88327157 0.75436866
0.048090272 0.88470227 0.75213218
0.048081763 0.88422012 0.75046062
0.048073255 0.88373798 0.74878913
0.047977239 0.87834179 0.8348968
0.047968999 0.87787473 0.8332774
0.048115298 0.87936467 0.83124763
0.047952518 0.87694055 0.83003867
0.04794427 0.87647349 0.82841921
0.04793603 0.87600636 0.82679987
0.047927789 0.8755393 0.82518047
0.047919542 0.87507224 0.82356107
0.048065737 0.87655592 0.82150972
0.048057474 0.87608778 0.81988674
0.048280813 0.87854272 0.81760508
0.049493738 0.88266969 0.76355767
0.049485274 0.88219017 0.76189512
0.049707532 0.88458383 0.75940138
0.049699046 0.88410276 0.75773346
0.049690552 0.88362169 0.75606555
0.049682066 0.88314062 0.75439763
0.049827315 0.88457096 0.75216115
0.049818806 0.88408887 0.75048965
0.049810298 0.88360673 0.74881816
0.049668364 0.87868172 0.83654428
0.049660124 0.8782146 0.83492494
0.049651876 0.87774754 0.83330548
0.049801916 0.87923717 0.83127582
0.049635395 0.87681335 0.83006674
0.049627155 0.87634629 0.82844734
0.049618907 0.87587923 0.82682794
0.049610667 0.87541211 0.82520854
0.049602427 0.87494504 0.82358921
0.049752355 0.87642848 0.82153791
0.049744092 0.87596035 0.81991494
0.049973033 0.87841481 0.81763333
0.051449329 0.88493395 0.76109827
0.051440842 0.88445288 0.75943035
0.051432356 0.88397181 0.75776243
0.051581375 0.88540393 0.75553322
0.051572867 0.88492185 0.75386167
0.051564358 0.88443971 0.75219017
0.05155585 0.88395756 0.75051868
0.051547341 0.88347548 0.74884713
0.051351242 0.87855452 0.83657241
0.051343001 0.87808746 0.83495301
0.051334761 0.87762034 0.83333361
0.051326513 0.87715328 0.83171427
0.051480271 0.87864161 0.82968104
0.051472008 0.87817347 0.828058
0.051463753 0.87770534 0.82643509
0.05145549 0.87723726 0.82481205
0.051447228 0.87676913 0.82318908
0.051438965 0.87630099 0.8215661
0.051673539 0.87875664 0.81928998
0.051665254 0.87828696 0.81766164
0.053182639 0.88480294 0.76112723
0.053174153 0.88432187 0.75945926
0.053165659 0.8838408 0.7577914
0.053157173 0.88335973 0.75612348
0.053148687 0.88287866 0.75445557
0.053301409 0.88430846 0.7522192
0.0532929 0.88382632 0.75054771
0.053284392 0.88334417 0.74887621
0.052793629 0.87595397 0.8388136
0.052785411 0.8754884 0.83719963
0.053025879 0.87796026 0.83498114
0.053017639 0.8774932 0.83336174
0.053009398 0.87702608 0.83174235
0.053166889 0.87851417 0.82970917
0.053158626 0.87804604 0.8280862
0.053150363 0.8775779 0.82646322
0.053142101 0.87710977 0.82484025
0.053133845 0.87664163 0.82321727
0.053374045 0.87909842 0.82094663
0.05336576 0.87862873 0.81931829
0.053357467 0.87815905 0.8176899
0.05491595 0.88467199 0.7611562
0.054907463 0.88419092 0.75948822
0.05489897 0.88370979 0.75782037
0.054890484 0.88322872 0.75615239
0.05488199 0.88274765 0.75448453
0.054873504 0.88226658 0.75281656
0.055029944 0.88369507 0.75057673
0.055021435 0.88321292 0.74890518
0.054470904 0.87582719 0.83884168
0.054462694 0.87536168 0.83722764
0.054454476 0.87489617 0.83561361
0.054446258 0.8744306 0.83399963
0.054692276 0.87689894 0.83177048
0.054684035 0.87643182 0.83015108
0.054675788 0.87596476 0.82853168
0.054836981 0.87745047 0.82649142
0.054828718 0.87698233 0.82486844
0.05507455 0.87944019 0.82260329
0.055066265 0.87897056 0.82097495
0.055057973 0.87850088 0.81934655
0.055049688 0.87803119 0.81771815
0.056640774 0.88405991 0.75951719
0.05663228 0.88357884 0.75784934
0.056623794 0.88309777 0.75618136
0.0566153 0.88261664 0.7545135
0.056606814 0.88213557 0.75284553
0.056766987 0.88356376 0.7506057
0.056758478 0.88308167 0.74893427
0.056148179 0.87570047 0.83886969
0.056139968 0.8752349 0.83725566
0.05613175 0.87476939 0.83564168
0.05612354 0.87430388 0.83402765
0.056375153 0.87677175 0.83179855
0.056366913 0.87630469 0.83017921
0.056358673 0.87583756 0.82855982
0.056523599 0.87732297 0.82651961
0.056515336 0.8768549 0.82489657
0.056766771 0.87931234 0.82263154
0.056758486 0.87884265 0.8210032
0.056750193 0.87837297 0.8193748
0.058374085 0.88392889 0.75954616
0.058365591 0.88344783 0.7578783
0.058357105 0.88296676 0.75621033
0.058348611 0.88248569 0.75454247
0.058340125 0.88200462 0.75287449
0.058504038 0.88343251 0.75063479
0.058495529 0.88295037 0.74896324
0.058099248 0.87897998 0.83992362
0.057825454 0.87557369 0.83889771
0.057817243 0.87510818 0.83728373
0.057809025 0.87464261 0.8356697
0.057800815 0.8741771 0.83405566
0.057792597 0.87371159 0.83244169
0.058049791 0.87617749 0.83020735
0.05804155 0.87571043 0.82858795
0.058210209 0.87719554 0.82654774
0.058467276 0.87965411 0.82428819
0.058458991 0.87918448 0.82265985
0.058450699 0.8787148 0.82103145
0.058442414 0.87824512 0.81940305
0.060107395 0.88379794 0.75957513
0.060098901 0.88331687 0.75790721
0.060090415 0.88283575 0.7562393
0.060081929 0.88235468 0.75457138
0.060073435 0.88187361 0.75290346
0.060064949 0.88139254 0.75123554
0.060232572 0.88281912 0.74899226
0.059510946 0.87591249 0.84053969
0.059502736 0.87544692 0.83892572
0.059313774 0.87302333 0.83771086
0.059305571 0.87255883 0.83610046
0.059478089 0.87405038 0.83408368
0.059469871 0.87358481 0.8324697
0.059732676 0.87605029 0.83023542
0.059724428 0.87558323 0.82861602
0.059896827 0.87706804 0.82657593
0.060159497 0.87952626 0.8243165
0.060151204 0.87905657 0.8226881
0.060142919 0.87858689 0.8210597
0.060134634 0.8781172 0.81943136
0.061840706 0.88366693 0.7596041
0.061832212 0.88318586 0.75793618
0.061823726 0.88270479 0.75626826
0.061815232 0.88222373 0.75460035
0.061806746 0.8817426 0.75293243
0.06179826 0.88126153 0.75126451
0.061969616 0.88268787 0.74902129
0.061188228 0.87578571 0.84056771
0.06118001 0.8753202 0.83895373
0.060987309 0.87289685 0.83773881
0.060979113 0.87243235 0.83612841
0.060970917 0.87196785 0.83451802
0.061147153 0.87345809 0.83249772
0.061415553 0.87592316 0.83026356
0.061407313 0.87545604 0.82864416
0.063298464 0.88066614 0.76046348
0.063290007 0.88018662 0.75880098
0.063557036 0.88257378 0.75629723
0.063548543 0.88209271 0.75462931
0.063540056 0.88161165 0.7529614
0.063531563 0.88113058 0.75129348
0.063523076 0.88064945 0.74962556
0.062873714 0.8761245 0.84220976
0.062865503 0.87565899 0.84059572
0.062669046 0.87323487 0.83937716
0.062660851 0.87277037 0.83776677
0.062652655 0.87230587 0.83615637
0.062644459 0.87184143 0.83454597
0.062824428 0.87333131 0.83252573
0.063098431 0.87579596 0.83029169
0.065026172 0.88053554 0.76049238
0.065017715 0.88005602 0.75882983
0.065290339 0.88244283 0.7563262
0.065281853 0.8819617 0.75465822
0.065273359 0.88148063 0.75299037
0.065264873 0.88099957 0.75132239
0.065256387 0.8805185 0.74965453
0.064358979 0.87403738 0.84262598
0.064350784 0.87357289 0.84101552
0.064342588 0.87310839 0.83940512
0.064334393 0.87264395 0.83779472
0.064326197 0.87217945 0.83618432
0.064318001 0.87171495 0.83457392
0.064501703 0.87320459 0.8325538
0.066753879 0.88040501 0.76052123
0.066745415 0.87992549 0.75885868
0.06702365 0.88231182 0.75635517
0.067015164 0.88183075 0.75468719
0.067006677 0.88134968 0.75301933
0.066998184 0.88086855 0.75135136
0.066989698 0.88038749 0.7496835
0.066032529 0.8739109 0.84265387
0.066024326 0.8734464 0.84104347
0.06601613 0.87298197 0.83943307
0.066007935 0.87251747 0.83782268
0.065999739 0.87205297 0.83621228
0.065991543 0.87158847 0.83460188
0.066178977 0.87307781 0.83258182
0.06877394 0.88314301 0.75971997
0.068765447 0.88266194 0.75805199
0.06875696 0.88218081 0.75638413
0.068748474 0.88169974 0.75471616
0.06873998 0.88121867 0.7530483
0.068731494 0.8807376 0.75138032
0.068723008 0.88025653 0.74971247
0.067714259 0.87424892 0.84429228
0.067706063 0.87378448 0.84268188
0.067697868 0.87331998 0.84107149
0.067689672 0.87285548 0.83946109
0.067681476 0.87239099 0.83785063
0.067673281 0.87192649 0.83624023
0.06786447 0.8734166 0.83422381
0.067856252 0.87295109 0.83260983
0.070217758 0.8806234 0.76224148
0.070209295 0.88014388 0.76057899
0.070200831 0.87966436 0.75891644
0.070192367 0.87918484 0.75725389
0.070481785 0.88156879 0.75474513
0.070473298 0.88108766 0.75307721
0.070464805 0.88060659 0.75140929
0.070456319 0.88012552 0.74974138
0.069387801 0.8741225 0.84432018
0.069379605 0.873658 0.84270978
0.06937141 0.8731935 0.84109938
0.069363214 0.872729 0.83948898
0.069355011 0.8722645 0.83787858
0.069346815 0.87180001 0.83626819
0.069541745 0.87328982 0.83425188
0.069533527 0.87282431 0.83263785
0.071945459 0.88049287 0.76227033
0.071936995 0.88001329 0.76060784
0.071928538 0.87953377 0.75894535
0.071920075 0.87905425 0.75728279
0.072215095 0.88143778 0.75477409
0.072206602 0.88095671 0.75310618
0.072198115 0.88047564 0.75143826
0.072189629 0.87999451 0.74977034
0.071069539 0.87446052 0.84595859
0.071061343 0.87399602 0.84434819
0.071053147 0.87353152 0.84273779
0.071044952 0.87306702 0.8411274
0.071036756 0.87260252 0.839517
0.07102856 0.87213802 0.8379066
0.071020357 0.87167352 0.8362962
0.07121902 0.8731631 0.83427989
0.071210809 0.87269753 0.83266592
0.07366471 0.87988275 0.76063669
0.073656246 0.87940323 0.75897419
0.073647782 0.87892371 0.75731164
0.073948406 0.88130677 0.75480306
0.073939919 0.8808257 0.75313514
0.073931426 0.88034463 0.75146723
0.07392294 0.87986356 0.74979931
0.072743081 0.87433404 0.84598655
0.072734885 0.87386954 0.84437615
0.072726689 0.87340504 0.84276575
0.072718486 0.87294054 0.84115535
0.072710291 0.87247604 0.83954495
0.07291273 0.87396741 0.83753586
0.072904512 0.87350184 0.83592188
0.072896302 0.87303632 0.83430791
0.075707182 0.88261902 0.75983572
0.075383946 0.87927264 0.75900304
0.07537549 0.87879312 0.75734055
0.075681716 0.88117582 0.75483203
0.075673223 0.88069475 0.75316405
0.075664736 0.88021362 0.7514962
0.07565625 0.87973255 0.74982828
0.074424818 0.87467206 0.8476249
0.074416623 0.87420756 0.8460145
0.074408427 0.87374306 0.8444041
0.074400231 0.87327856 0.8427937
0.074392028 0.87281406 0.8411833
0.074383833 0.87234962 0.83957291
0.074590005 0.87384063 0.83756393
0.074581787 0.87337512 0.8359499
0.074573576 0.87290961 0.83433592
0.077111661 0.87914211 0.75903189
0.077103198 0.87866259 0.7573694
0.077415027 0.88104481 0.754861
0.077406533 0.88056374 0.75319302
0.077398047 0.88008267 0.75152516
0.077389553 0.8796016 0.74985719
0.07609836 0.87454557 0.84765285
0.076090157 0.87408108 0.84604245
0.076081961 0.87361658 0.84443206
0.076073766 0.87315208 0.84282166
0.07606557 0.87268764 0.84121126
0.076057374 0.87222314 0.83960086
0.07626728 0.87371391 0.83759195
0.076259069 0.87324834 0.83597791
0.076250851 0.87278283 0.83436394
0.07916531 0.88187599 0.7582258
0.079156823 0.88139492 0.75655782
0.079148337 0.88091385 0.75488997
0.079139844 0.88043272 0.75322199
0.07913135 0.87995166 0.75155413
0.079122864 0.87947059 0.74988616
0.077993847 0.87638032 0.84730393
0.077985629 0.87591475 0.84568995
0.077977419 0.87544924 0.84407592
0.077969201 0.87498373 0.84246194
0.07796099 0.87451822 0.84084797
0.077952772 0.87405264 0.83923393
0.077944562 0.87358713 0.83761996
0.077936344 0.87312162 0.83600593
0.077928126 0.87265611 0.83439195
0.08089862 0.88174498 0.75825471
0.080890134 0.88126391 0.75658679
0.08088164 0.88078284 0.75491893
0.080873154 0.88030177 0.75325096
0.08108563 0.88172603 0.75101203
0.081077121 0.88124388 0.74934053
0.080017895 0.87966216 0.84838611
0.07967113 0.87625355 0.847332
0.079662912 0.87578803 0.84571797
0.079654694 0.87532252 0.84410393
0.079646483 0.87485695 0.84248996
0.079638265 0.87439144 0.84087598
0.079630047 0.87392592 0.83926201
0.079621837 0.87346041 0.83764797
0.079613619 0.87299484 0.83603394
0.082631931 0.88161403 0.75828367
0.082623437 0.88113296 0.75661576
0.08283969 0.882559 0.75438404
0.082831182 0.88207686 0.75271255
0.082822673 0.88159472 0.75104105
0.082814164 0.88111264 0.7493695
0.081356615 0.87659234 0.84897399
0.081348404 0.87612683 0.84736001
0.081340194 0.87566125 0.84574598
0.081331968 0.87519574 0.84413195
0.081323758 0.87473023 0.84251797
0.081315547 0.87426472 0.840904
0.081307329 0.87379915 0.83929002
0.081299111 0.87333363 0.83767599
0.081290901 0.87286812 0.83606201
0.084593751 0.88339198 0.75775611
0.084585242 0.88290983 0.75608456
0.084576741 0.88242769 0.75441313
0.084568232 0.88194561 0.75274158
0.084559724 0.88146347 0.75107008
0.084551215 0.88098139 0.74939859
0.08303389 0.87646556 0.849002
0.083025679 0.87600005 0.84738803
0.082784325 0.87357521 0.84615433
0.082776129 0.87311071 0.84454393
0.082767934 0.87264621 0.84293354
0.082759738 0.87218171 0.84132308
0.082751542 0.87171721 0.83971268
0.082976386 0.87320685 0.83770406
0.082968175 0.87274134 0.83609003
0.086330801 0.88326067 0.75778514
0.086322293 0.88277858 0.75611365
0.086313784 0.88229644 0.7544421
0.086305276 0.8818143 0.7527706
0.086296767 0.88133222 0.75109911
0.086288258 0.88085008 0.74942756
0.084474258 0.87437773 0.84940308
0.084466055 0.87391323 0.84779263
0.084457859 0.87344873 0.84618223
0.084449664 0.87298423 0.84457183
0.084441468 0.87251973 0.84296143
0.084433272 0.87205529 0.84135103
0.084425077 0.87159079 0.83974063
0.084416881 0.87112629 0.83813024
0.08464545 0.87261462 0.83611804
0.087831862 0.88122106 0.75837052
0.087823376 0.88073999 0.75670266
0.087814882 0.88025892 0.75503469
0.088042319 0.88168305 0.75279963
0.08803381 0.88120091 0.75112808
0.088025302 0.88071883 0.74945664
0.0861478 0.87425125 0.84943104
0.086139604 0.87378675 0.84782064
0.086131409 0.87332225 0.84621024
0.086123213 0.87285775 0.84459984
0.08611501 0.87239331 0.84298944
0.086106814 0.87192881 0.84137905
0.086098619 0.87146431 0.83976865
0.086090423 0.87099981 0.83815819
0.086322725 0.87248784 0.83614606
0.089565173 0.88109004 0.75839949
0.089556679 0.88060898 0.75673163
0.089548193 0.88012791 0.75506365
0.089539707 0.87964684 0.7533958
0.089770854 0.88106966 0.75115716
0.089762345 0.88058758 0.74948561
0.087829545 0.87458926 0.85106939
0.08782135 0.87412477 0.84945899
0.087813146 0.87366027 0.84784859
0.087804951 0.87319583 0.8462382
0.087796755 0.87273133 0.84462774
0.087788552 0.87226683 0.84301734
0.087780356 0.87180233 0.84140694
0.087772161 0.87133783 0.83979654
0.088008218 0.87282664 0.83778811
0.088 0.87236106 0.83617413
0.091298483 0.88095909 0.75842845
0.091289997 0.88047802 0.7567606
0.091281503 0.8799969 0.75509262
0.091273017 0.87951583 0.75342476
0.091264531 0.87903476 0.75175679
0.091256037 0.87855369 0.75008893
0.08950308 0.87446278 0.85109735
0.089494884 0.87399828 0.84948695
0.089486688 0.87353384 0.84787655
0.089478493 0.87306935 0.84626615
0.089470297 0.87260485 0.84465575
0.089462094 0.87214035 0.84304535
0.089453898 0.87167585 0.84143496
0.08969371 0.87316537 0.83943009
0.0896855 0.87269986 0.83781612
0.089677274 0.87223434 0.83620214
0.090040997 0.8746953 0.83398032
0.090032749 0.87422824 0.83236092
0.0906443 0.87863344 0.82971048
0.090636015 0.87816375 0.82808214
0.090875596 0.87964088 0.82603419
0.090867296 0.87917018 0.82440221
0.090858981 0.87869948 0.82277024
0.090850681 0.87822878 0.82113826
0.091090173 0.87970072 0.81907231
0.091445185 0.88166815 0.81513941
0.091436833 0.88119483 0.8134985
0.093278974 0.88273561 0.75790119
0.093270466 0.88225347 0.7562297
0.093014814 0.87986594 0.75512159
0.093006328 0.87938488 0.75345367
0.092997834 0.87890375 0.75178576
0.092989348 0.87842268 0.75011784
0.090546936 0.86943364 0.85204834
0.090538785 0.86897171 0.85044694
0.090908393 0.87144834 0.84828091
0.090900213 0.87098491 0.84667408
0.090892032 0.87052143 0.84506726
0.090883851 0.870058 0.8434605
0.09112744 0.87154937 0.84146285
0.091119245 0.87108487 0.83985245
0.091362774 0.87257314 0.83784413
0.091354549 0.87210757 0.83623016
0.091723874 0.87456816 0.83400846
0.091715634 0.87410104 0.832389
0.092336521 0.87850553 0.82973874
0.092328228 0.87803584 0.8281104
0.092319936 0.87756616 0.826482
0.092563249 0.87904203 0.82443053
0.092554942 0.87857133 0.82279855
0.092546634 0.87810057 0.82116657
0.092538327 0.87762988 0.8195346
0.092530027 0.87715918 0.81790268
0.092521712 0.87668848 0.81627071
0.092513412 0.87621772 0.81463873
0.092505097 0.87574703 0.81300676
0.092496797 0.87527633 0.81137478
0.092237055 0.87286943 0.81019825
0.09222877 0.87239975 0.80856991
0.094765104 0.88069713 0.75848639
0.094756618 0.880216 0.75681847
0.094748124 0.87973493 0.75515056
0.094739638 0.87925386 0.75348264
0.094731152 0.8787728 0.75181472
0.09497349 0.88019377 0.74957269
0.092211142 0.86930788 0.85207617
0.092202991 0.86884594 0.85047472
0.092578195 0.87132215 0.8483088
0.092570014 0.87085873 0.84670198
0.092561841 0.87039524 0.84509516
0.09255366 0.86993182 0.8434884
0.092800975 0.87142289 0.84149086
0.092792779 0.87095845 0.83988047
0.093040049 0.87244636 0.83787215
0.093031824 0.87198085 0.83625817
0.093406752 0.87444097 0.83403653
0.093398511 0.87397391 0.83241713
0.093645655 0.87545514 0.83038545
0.093637392 0.87498701 0.82876253
0.094012156 0.87743831 0.82651031
0.094259202 0.87891388 0.82445884
0.094250895 0.87844312 0.82282686
0.094242588 0.87797242 0.82119489
0.09423428 0.87750173 0.81956297
0.094225973 0.87703103 0.817931
0.093962431 0.87462026 0.81674004
0.093954138 0.87415057 0.81511164
0.093945846 0.87368089 0.8134833
0.094192751 0.87514818 0.8114031
0.093929276 0.87274152 0.81022656
0.093920983 0.87227184 0.80859816
0.096498415 0.88056612 0.75851536
0.096489921 0.88008505 0.75684744
0.096481428 0.87960398 0.75517952
0.096472949 0.87912285 0.75351161
0.096464455 0.87864178 0.75184369
0.096455961 0.87816072 0.75017577
0.094264358 0.87212288 0.85155034
0.094256178 0.87165946 0.84994352
0.094247997 0.87119597 0.8483367
0.094239816 0.87073255 0.84672987
0.094231635 0.87026906 0.84512305
0.094223462 0.86980563 0.84351629
0.094474524 0.87129647 0.84151882
0.094466329 0.87083197 0.83990842
0.094717324 0.87231964 0.83790016
0.09509787 0.87478089 0.83568406
0.095089629 0.87431377 0.83406466
0.095081389 0.87384671 0.83244526
0.095073149 0.87337965 0.83082587
0.09532401 0.87485957 0.82879066
0.095315747 0.87439144 0.82716769
0.095696092 0.87684071 0.82491016
0.095687799 0.87637109 0.82328182
0.095938548 0.87784427 0.82122326
0.095930234 0.87737358 0.81959128
0.095662937 0.87496203 0.81839669
0.095654652 0.87449235 0.81676829
0.095646359 0.87402266 0.81513995
0.095638067 0.87355298 0.81351155
0.095888704 0.87501997 0.81143141
0.095880404 0.87454927 0.80979943
0.095872089 0.87407857 0.80816746
0.096510947 0.87844169 0.80537915
0.098231718 0.88043517 0.75854433
0.098223232 0.87995404 0.75687635
0.098214746 0.87947297 0.75520849
0.098206252 0.8789919 0.75354052
0.098197766 0.87851083 0.75187266
0.098189279 0.8780297 0.75020468
0.095950514 0.87292361 0.85479182
0.095942341 0.87246013 0.853185
0.095934168 0.8719967 0.85157824
0.095925987 0.87153322 0.84997141
0.095917806 0.87106979 0.84836459
0.095909625 0.8706063 0.84675777
0.095901445 0.87014288 0.84515095
0.095893271 0.86967945 0.84354419
0.096148059 0.87116998 0.84154677
0.096402809 0.87265837 0.83954221
0.096394598 0.87219286 0.83792818
0.096780755 0.8746537 0.83571219
0.096772514 0.87418664 0.83409274
0.096764266 0.87371951 0.8324734
0.096756026 0.87325245 0.830854
0.09701062 0.87473214 0.82881886
0.097002357 0.874264 0.82719588
0.097388305 0.87671286 0.82493848
0.097380012 0.87624317 0.82331008
0.097634494 0.87771612 0.82125157
0.097626187 0.87724537 0.81961966
0.097355157 0.87483418 0.81842494
0.097346865 0.8743645 0.8167966
0.097601265 0.87583327 0.81472373
0.097592965 0.87536252 0.81309175
0.09784732 0.87682819 0.8110081
0.097838998 0.87635648 0.80937254
0.097830668 0.87588471 0.80773699
0.098216236 0.87831283 0.80540764
0.098470479 0.87977177 0.80330062
0.099965036 0.88030416 0.75857329
0.099956542 0.87982309 0.75690532
0.099948049 0.87934202 0.75523746
0.099546462 0.87600619 0.75441957
0.099537998 0.87552667 0.75275707
0.099922583 0.87789875 0.75023365
0.097620323 0.87279743 0.85481972
0.097612143 0.87233394 0.85321289
0.097870782 0.87383044 0.85123718
0.097595789 0.87140703 0.84999931
0.097587615 0.87094361 0.84839249
0.097579435 0.87048012 0.84678566
0.097571254 0.87001669 0.84517884
0.097563073 0.86955321 0.84357208
0.097821601 0.8710435 0.84157473
0.098080091 0.87253165 0.83957022
0.098071873 0.87206608 0.83795619
0.098063663 0.87160057 0.83634222
0.098455392 0.87405944 0.83412087
0.098447144 0.87359238 0.83250147
0.098438904 0.87312526 0.83088207
0.098430663 0.87265819 0.82926273
0.098422423 0.87219113 0.82764333
0.09868072 0.87366843 0.8256011
0.098672457 0.8732003 0.82397807
0.098664194 0.87273216 0.82235509
0.098655939 0.87226403 0.82073212
0.099047378 0.87470627 0.81845319
0.099039085 0.87423658 0.81682485
0.099030793 0.8737669 0.81519651
0.099022508 0.87329721 0.81356812
0.099280611 0.87476367 0.81148809
0.099272311 0.87429297 0.80985612
0.099530354 0.87575626 0.80776536
0.099522032 0.87528449 0.80612981
0.09991318 0.87771064 0.80379522
0.10168985 0.87969208 0.75693429
0.10168137 0.87921101 0.75526643
0.10127416 0.87587565 0.75444841
0.1012657 0.87539613 0.75278592
0.1016559 0.87776774 0.75026262
0.099290133 0.87267125 0.85484761
0.099281952 0.87220776 0.85324085
0.099273771 0.87174433 0.85163403
0.09926559 0.87128085 0.8500272
0.099257417 0.87081742 0.84842038
0.099249236 0.87035394 0.84681356
0.099241063 0.86989051 0.84520674
0.099232882 0.86942703 0.84359998
0.099495143 0.87091702 0.84160268
0.099757366 0.87240487 0.83959824
0.099749148 0.87193936 0.83798426
0.099740937 0.87147385 0.83637023
0.10013828 0.87393224 0.834149
0.10013003 0.87346518 0.8325296
0.10012178 0.87299812 0.83091021
0.10011354 0.872531 0.82929087
0.1001053 0.87206393 0.82767141
0.10036734 0.87354094 0.82562923
0.10035907 0.87307286 0.82400626
0.10035081 0.87260473 0.82238328
0.10034256 0.87213659 0.82076031
0.10073959 0.87457842 0.8184815
0.1007313 0.87410873 0.81685317
0.10072301 0.87363905 0.81522477
0.10071473 0.87316936 0.81359637
0.10097657 0.87463552 0.8115164
0.10096826 0.87416476 0.80988449
0.10095996 0.87369406 0.80825251
0.10122173 0.87515604 0.80615819
0.10161848 0.87758178 0.80382371
0.10340619 0.87859893 0.75362742
0.1033977 0.87811786 0.7519595
0.1033892 0.87763679 0.75029159
0.10095993 0.87254506 0.8548755
0.10095176 0.87208158 0.85326874
0.10094358 0.87161815 0.85166192
0.1009354 0.87115467 0.8500551
0.10092722 0.87069124 0.84844828
0.10091904 0.87022775 0.84684145
0.10091086 0.86976433 0.84523463
0.10090269 0.86930084 0.84362787
0.10089451 0.86883742 0.84202105
0.10116049 0.87032604 0.84002024
0.10115229 0.8698616 0.83840984
0.10141821 0.87134707 0.83639824
0.10140999 0.87088156 0.83478427
0.10181291 0.87333798 0.83255774
0.10180466 0.87287092 0.83093834
0.10179642 0.87240386 0.82931894
0.10178818 0.87193674 0.82769954
0.10205395 0.8734135 0.82565743
0.10245667 0.87585956 0.82339489
0.10203743 0.87247723 0.82241142
0.10202917 0.87200916 0.8207885
0.10243181 0.8744505 0.81850976
0.10242352 0.87398082 0.81688142
0.10268913 0.87544876 0.81480873
0.10268083 0.87497807 0.81317675
0.10267252 0.87450731 0.81154478
0.10266422 0.87403661 0.8099128
0.10265591 0.87356591 0.80828083
0.10292141 0.8750276 0.80618656
0.10332377 0.87745291 0.8038522
0.10262974 0.87241888 0.85490346
0.10262156 0.87195539 0.85329664
0.10261339 0.87149197 0.85168982
0.10260521 0.87102848 0.85008299
0.10259703 0.87056506 0.84847617
0.10258885 0.87010157 0.84686935
0.10258067 0.86963814 0.84526259
0.10257249 0.86917466 0.84365577
0.10256431 0.86871123 0.84204894
0.10283403 0.87019962 0.84004819
0.10282584 0.86973512 0.8384378
0.10309549 0.87122035 0.83642626
0.10308728 0.87075478 0.83481228
0.10349579 0.87321085 0.83258581
0.10348755 0.87274373 0.83096647
0.1034793 0.87227666 0.82934707
0.10347106 0.8718096 0.82772768
0.10374056 0.87328607 0.82568562
0.1037323 0.87281793 0.82406259
0.10372403 0.8723498 0.82243967
0.10371578 0.87188166 0.82081664
0.10412402 0.87432265 0.81853807
0.10411574 0.87385297 0.81690967
0.10438509 0.87532061 0.81483704
0.10437678 0.87484986 0.81320506
0.10436848 0.87437916 0.81157309
0.10436016 0.87390846 0.80994117
0.10435186 0.87343776 0.8083092
0.1046211 0.87489915 0.80621499
0.10502906 0.87732404 0.80388069
0.10386869 0.86888939 0.85387218
0.10386056 0.86842752 0.85227072
0.10427502 0.8709023 0.85011089
0.10384426 0.8675037 0.84906793
0.10383609 0.86704183 0.84746647
0.10425048 0.86951196 0.84529048
0.1042423 0.86904848 0.84368366
0.10451576 0.87053764 0.84168661
0.10450757 0.87007314 0.84007621
0.10478097 0.87155908 0.83806831
0.10477276 0.87109357 0.83645433
0.10518691 0.87355071 0.83423334
0.10517867 0.87308365 0.83261395
0.10517043 0.87261659 0.83099461
0.10516217 0.87214947 0.82937515
0.10515393 0.87168241 0.82775581
0.10542718 0.87315857 0.82571375
0.10541892 0.87269044 0.82409078
0.10610595 0.87660456 0.81976128
0.10609765 0.87613386 0.8181293
0.10608935 0.87566316 0.81649733
0.10608104 0.8751924 0.81486535
0.10607274 0.87472171 0.81323338
0.10606444 0.87425101 0.81160146
0.10605612 0.87378031 0.80996948
0.10604781 0.87330955 0.80833751
0.1063208 0.8747707 0.80624336
0.10553291 0.86876363 0.85389996
0.10552475 0.86830175 0.85229856
0.10551661 0.86783981 0.85069716
0.105223 0.86542147 0.84947157
0.10521486 0.86496061 0.84787375
0.10549214 0.86645412 0.84589291
0.10548401 0.86599225 0.84429145
0.10590392 0.86845887 0.84210473
0.10618111 0.86994666 0.8401041
0.10645826 0.87143236 0.83809638
0.10645004 0.87096679 0.83648235
0.10686979 0.87342358 0.83426148
0.10686155 0.87295645 0.83264208
0.10685331 0.87248939 0.83102268
0.10713032 0.87396735 0.82898796
0.10712206 0.87349927 0.82736492
0.10754162 0.87594557 0.82510811
0.10753334 0.87547588 0.82347971
0.1076228 0.87111336 0.8517735
0.1071808 0.86771405 0.85072494
0.10688347 0.86529601 0.84949929
0.10687533 0.86483514 0.84790146
0.10715635 0.86632836 0.84592068
0.1071482 0.86586648 0.84431928
0.10714005 0.86540461 0.84271789
0.10756555 0.8678692 0.84052587
0.10755737 0.86740571 0.83891904
0.10856092 0.8737635 0.83590895
0.10855268 0.87329638 0.83428955
0.10883346 0.87477612 0.83226204
0.10882519 0.87430805 0.83063912
0.10881694 0.87383991 0.82901609
0.10884501 0.86758834 0.85075277
0.10883686 0.86712641 0.84915137
0.10882871 0.86666453 0.84754992
0.10882056 0.86620259 0.84594852
0.10881241 0.86574072 0.84434712
0.10880426 0.86527884 0.84274566
0.1087961 0.8648169 0.84114426
0.10922718 0.86727953 0.83894694
0.11383152 0.87925625 0.75880492
0.11382303 0.87877518 0.75713706
0.11049291 0.86653876 0.84757769
0.11048475 0.86607683 0.84597629
0.11017999 0.86366242 0.84476131
0.11017187 0.86320156 0.84316349
0.11046031 0.86469114 0.8411721
0.11557332 0.87960637 0.7605018
0.11556482 0.8791253 0.75883389
0.11555633 0.87864417 0.75716597
0.11554784 0.8781631 0.75549805
0.11553934 0.87768203 0.75383013
0.11184046 0.86353695 0.84478903
0.11183234 0.86307609 0.84319127
0.11685738 0.87661868 0.76135832
0.11684892 0.87613916 0.75969577
0.11684045 0.87565958 0.75803328
0.11683199 0.87518007 0.75637078
0.11727268 0.87755102 0.7538591
0.11829029 0.87506229 0.76359779
0.11828184 0.87458378 0.76193887
0.11857662 0.87600857 0.75972468
0.11856815 0.87552905 0.75806212
0.11825651 0.87314832 0.75696206
0.11779332 0.86981976 0.75615215
0.11778492 0.86934286 0.7544986
0.1177765 0.86886591 0.75284511
0.12002271 0.8754105 0.76528549
0.12001427 0.87493199 0.76362658
0.12000582 0.87445354 0.76196766
0.12030432 0.87587804 0.75975353
0.12029585 0.87539852 0.75809097
0.11998048 0.87301803 0.75699091
0.11951169 0.86968994 0.75618088
0.11950327 0.86921299 0.75452733
0.11949486 0.86873609 0.75287378
0.12128055 0.87242168 0.76613081
0.12127215 0.87194473 0.76447725
0.12126373 0.87146783 0.76282376
