ply
format ascii 1.0
comment PCL generated
element vertex 1109
property float x
property float y
property float z
property uchar red
property uchar green
property uchar blue
element camera 0
property float view_px
property float view_py
property float view_pz
property float x_axisx
property float x_axisy
property float x_axisz
property float y_axisx
property float y_axisy
property float y_axisz
property float z_axisx
property float z_axisy
property float z_axisz
property float focal
property float scalex
property float scaley
property float centerx
property float centery
property int viewportx
property int viewporty
property float k1
property float k2
end_header
0.12087491 0.86407894 0.83110821 255 80 80
0.12150446 0.8674984 0.82866454 255 80 80
0.12149623 0.86703289 0.82705057 255 80 80
0.12148802 0.86656731 0.82543659 255 80 80
0.12147981 0.8661018 0.82382256 255 80 80
0.12147158 0.86563629 0.82220858 255 80 80
0.12194154 0.86807525 0.81993997 255 80 80
0.12145516 0.8647052 0.81898057 255 80 80
0.12144694 0.86423969 0.8173666 255 80 80
0.1219168 0.86667395 0.81508183 255 80 80
0.12143052 0.86330867 0.81413859 255 80 80
0.12142231 0.8628431 0.81252456 255 80 80
0.12189206 0.8652727 0.8102237 255 80 80
0.12188384 0.86480564 0.8086043 255 80 80
0.12187558 0.86433858 0.8069849 255 80 80
0.12218595 0.86579841 0.80489677 255 80 80
0.12265556 0.86821914 0.80256528 255 80 80
0.12296583 0.86967438 0.80046099 255 80 80
0.12295753 0.86920369 0.79882902 255 80 80
0.12263069 0.86681014 0.79768014 255 80 80
0.1226224 0.86634046 0.7960518 255 80 80
0.12293261 0.86779153 0.79393315 255 80 80
0.1229243 0.86732084 0.79230118 255 80 80
0.12258098 0.86399209 0.78790992 255 80 80
0.12257268 0.86352241 0.78628153 255 80 80
0.12436548 0.86835313 0.76013267 255 80 80
0.12435707 0.86787724 0.75848275 255 80 80
0.12466681 0.86930037 0.75626701 255 80 80
0.12465838 0.86882341 0.75461352 255 80 80
0.12464997 0.86834651 0.75295997 255 80 80
0.12464155 0.86786956 0.75130641 255 80 80
0.12463313 0.8673926 0.74965286 255 80 80
0.12462473 0.8669157 0.74799931 255 80 80
0.12187645 0.86693186 0.8593359 255 80 80
0.12186833 0.86647099 0.85773808 255 80 80
0.12186019 0.86601013 0.85614026 255 80 80
0.12152919 0.86359257 0.85490686 255 80 80
0.12152109 0.86313272 0.85331261 255 80 80
0.12119013 0.86071819 0.85209 255 80 80
0.12118202 0.86025941 0.85049939 255 80 80
0.12117395 0.85980058 0.84890878 255 80 80
0.12116584 0.8593418 0.84731817 255 80 80
0.12115774 0.85888302 0.8457275 255 80 80
0.12114966 0.85842425 0.84413689 255 80 80
0.12114155 0.85796547 0.84254622 255 80 80
0.12145618 0.85945415 0.84055883 255 80 80
0.12144805 0.85899431 0.83896458 255 80 80
0.12143993 0.85853446 0.8373704 255 80 80
0.12175447 0.86001891 0.83536857 255 80 80
0.12206897 0.86150128 0.8333596 255 80 80
0.12254474 0.86395276 0.83113611 255 80 80
0.12318173 0.86737168 0.82869256 255 80 80
0.12317351 0.86690611 0.82707858 255 80 80
0.12316529 0.86644059 0.82546461 255 80 80
0.12315708 0.86597508 0.82385057 255 80 80
0.12314886 0.86550951 0.8222366 255 80 80
0.12362441 0.86794806 0.8199681 255 80 80
0.12313244 0.86457849 0.81900859 255 80 80
0.12312421 0.86411297 0.81739461 255 80 80
0.12311602 0.8636474 0.81578064 255 80 80
0.12310779 0.86318189 0.81416661 255 80 80
0.12309958 0.86271638 0.81255263 255 80 80
0.12357494 0.86514556 0.81025177 255 80 80
0.12356672 0.86467844 0.80863237 255 80 80
0.12355846 0.86421138 0.80701303 255 80 80
0.12387255 0.86567098 0.80492496 255 80 80
0.12386429 0.86520284 0.80330199 255 80 80
0.12433949 0.8676216 0.80096519 255 80 80
0.12384778 0.86426663 0.80005598 255 80 80
0.12383951 0.8637985 0.79843301 255 80 80
0.12383124 0.86333036 0.79681003 255 80 80
0.12430632 0.86574292 0.79445171 255 80 80
0.12429804 0.86527324 0.79282331 255 80 80
0.12380648 0.86192602 0.79194111 255 80 80
0.12379821 0.86145788 0.79031813 255 80 80
0.12427318 0.86386418 0.78793818 255 80 80
0.1242649 0.8633945 0.78630984 255 80 80
0.12425661 0.86292481 0.78468144 255 80 80
0.12640199 0.87012434 0.75960279 255 80 80
0.12607172 0.86774766 0.75851142 255 80 80
0.12606332 0.86727178 0.75686145 255 80 80
0.12637675 0.86869359 0.75464219 255 80 80
0.12636834 0.86821663 0.75298864 255 80 80
0.12635991 0.86773968 0.75133514 255 80 80
0.12635151 0.86726278 0.74968159 255 80 80
0.12634309 0.86678582 0.74802804 255 80 80
0.12353691 0.86680639 0.85936368 255 80 80
0.12352879 0.86634552 0.85776579 255 80 80
0.12352066 0.86588466 0.85616803 255 80 80
0.12318593 0.86346734 0.85493457 255 80 80
0.12317781 0.86300755 0.85334033 255 80 80
0.12316969 0.8625477 0.85174608 255 80 80
0.12283504 0.86013448 0.85052705 255 80 80
0.12282693 0.85967571 0.84893638 255 80 80
0.12281884 0.85921687 0.84734577 255 80 80
0.12281075 0.85875809 0.8457551 255 80 80
0.12280264 0.85829931 0.84416449 255 80 80
0.12279455 0.85784054 0.84257388 255 80 80
0.12278646 0.85738176 0.84098327 255 80 80
0.12310478 0.85886908 0.83899224 255 80 80
0.12309667 0.85840929 0.83739805 255 80 80
0.12341493 0.85989344 0.83539635 255 80 80
0.12373316 0.86137551 0.83338743 255 80 80
0.12421453 0.86382657 0.831164 255 80 80
0.12485901 0.8672449 0.82872057 255 80 80
0.12485078 0.86677939 0.8271066 255 80 80
0.12484257 0.86631382 0.82549262 255 80 80
0.12483436 0.8658483 0.82387865 255 80 80
0.12482613 0.86538279 0.82226461 255 80 80
0.12481794 0.86491728 0.82065064 255 80 80
0.12480971 0.86445171 0.8190366 255 80 80
0.12480149 0.86398619 0.81742263 255 80 80
0.12479329 0.86352068 0.81580865 255 80 80
0.12478507 0.86305511 0.81419462 255 80 80
0.12477686 0.8625896 0.81258065 255 80 80
0.12525783 0.86501837 0.81027991 255 80 80
0.12524959 0.86455131 0.80866051 255 80 80
0.12524134 0.86408418 0.80704111 255 80 80
0.12523311 0.86361712 0.80542171 255 80 80
0.12555091 0.86507541 0.80333018 255 80 80
0.12521663 0.86268294 0.80218297 255 80 80
0.12520838 0.86221588 0.80056357 255 80 80
0.12520014 0.86174875 0.79894418 255 80 80
0.1251919 0.86128169 0.79732478 255 80 80
0.12550962 0.86273479 0.79521525 255 80 80
0.12517542 0.86034751 0.79408598 255 80 80
0.12516716 0.85988045 0.79246664 255 80 80
0.12515892 0.85941339 0.79084724 255 80 80
0.12547657 0.86086231 0.78872329 255 80 80
0.1259571 0.86326665 0.78633809 255 80 80
0.12594882 0.86279696 0.78470969 255 80 80
0.12778634 0.86761808 0.75854003 255 80 80
0.12777795 0.8671422 0.75689012 255 80 80
0.12809512 0.86856371 0.75467086 255 80 80
0.12808672 0.86808676 0.75301737 255 80 80
0.12807828 0.86760986 0.75136381 255 80 80
0.12806988 0.8671329 0.74971032 255 80 80
0.12806146 0.86665595 0.74805677 255 80 80
0.12519738 0.86668086 0.85939139 255 80 80
0.12518926 0.86622 0.85779357 255 80 80
0.12518112 0.86575913 0.85619575 255 80 80
0.125173 0.86529827 0.85459793 255 80 80
0.12483454 0.86288232 0.85336798 255 80 80
0.12449613 0.86046833 0.85214531 255 80 80
0.12448803 0.86000955 0.85055465 255 80 80
0.12447993 0.85955077 0.84896398 255 80 80
0.12447184 0.859092 0.84737337 255 80 80
0.12446374 0.85863316 0.84578276 255 80 80
0.12445565 0.85817438 0.84419215 255 80 80
0.12444755 0.85771561 0.84260148 255 80 80
0.12443945 0.85725683 0.84101087 255 80 80
0.12476152 0.85874391 0.83901995 255 80 80
0.1247534 0.85828406 0.83742571 255 80 80
0.12540552 0.86171168 0.83501661 255 80 80
0.12589251 0.86416388 0.83279872 255 80 80
0.12588432 0.86370039 0.8311919 255 80 80
0.12653628 0.86711812 0.82874864 255 80 80
0.12652807 0.86665261 0.82713461 255 80 80
0.12651986 0.8661871 0.82552063 255 80 80
0.12651163 0.86572158 0.82390666 255 80 80
0.12650342 0.86525601 0.82229263 255 80 80
0.12649521 0.8647905 0.82067865 255 80 80
0.12648699 0.86432499 0.81906462 255 80 80
0.12647878 0.86385942 0.81745064 255 80 80
0.12647057 0.8633939 0.81583667 255 80 80
0.12646234 0.86292839 0.81422269 255 80 80
0.12645414 0.86246288 0.81260866 255 80 80
0.12694071 0.86489117 0.81030798 255 80 80
0.12693247 0.86442411 0.80868864 255 80 80
0.12692422 0.86395705 0.80706924 255 80 80
0.12691599 0.86348993 0.80544984 255 80 80
0.12690774 0.86302286 0.8038305 255 80 80
0.12689951 0.86255574 0.80221105 255 80 80
0.12689126 0.86208868 0.80059171 255 80 80
0.12688302 0.86162162 0.79897231 255 80 80
0.12687477 0.8611545 0.79735291 255 80 80
0.12686652 0.86068743 0.79573351 255 80 80
0.12685829 0.86022037 0.79411411 255 80 80
0.12685004 0.85975325 0.79249477 255 80 80
0.1268418 0.85928619 0.79087538 255 80 80
0.12716319 0.86073482 0.78875148 255 80 80
0.12764932 0.86313874 0.78636634 255 80 80
0.12764104 0.86266911 0.78473794 255 80 80
0.12981348 0.86843383 0.75469959 255 80 80
0.12980506 0.86795694 0.75304604 255 80 80
0.12979665 0.86747998 0.75139248 255 80 80
0.12978822 0.86700302 0.74973899 255 80 80
0.12685785 0.86655539 0.85941911 255 80 80
0.12684973 0.86609453 0.85782135 255 80 80
0.12684159 0.86563367 0.85622346 255 80 80
0.12649938 0.863217 0.85498989 255 80 80
0.12615722 0.86080223 0.85376352 255 80 80
0.12614912 0.86034346 0.85217285 255 80 80
0.12564 0.85695553 0.85114479 255 80 80
0.12563193 0.8564983 0.84955955 255 80 80
0.12562387 0.85604107 0.8479743 255 80 80
0.12561581 0.85558385 0.84638906 255 80 80
0.12610865 0.85804945 0.84421974 255 80 80
0.12610054 0.85759068 0.84262908 255 80 80
0.12609246 0.8571319 0.84103847 255 80 80
0.12641823 0.85861868 0.83904767 255 80 80
0.126744 0.86010331 0.8370496 255 80 80
0.1275705 0.86450112 0.83443338 255 80 80
0.12756231 0.86403769 0.83282661 255 80 80
0.12822177 0.86745691 0.83039063 255 80 80
0.12821355 0.8669914 0.82877666 255 80 80
0.12870602 0.86943483 0.82653004 255 80 80
0.12819712 0.86606032 0.82554865 255 80 80
0.12818891 0.8655948 0.82393467 255 80 80
0.12818068 0.86512929 0.8223207 255 80 80
0.12867305 0.86756653 0.8200525 255 80 80
0.12866481 0.86709946 0.81843305 255 80 80
0.12865657 0.86663234 0.81681371 255 80 80
0.12864833 0.86616528 0.81519431 255 80 80
0.12859887 0.86336279 0.80547798 255 80 80
0.12809032 0.86000848 0.80456668 255 80 80
0.12808211 0.85954291 0.80295271 255 80 80
0.1280739 0.85907739 0.80133867 255 80 80
0.12856591 0.86149442 0.79900038 255 80 80
0.12855765 0.86102736 0.79738104 255 80 80
0.12854941 0.86056024 0.79576164 255 80 80
0.12854117 0.86009318 0.79414225 255 80 80
0.12853293 0.85962611 0.79252285 255 80 80
0.12852469 0.85915899 0.79090345 255 80 80
0.1288498 0.86060739 0.78877968 255 80 80
0.12934154 0.86301088 0.7863946 255 80 80
0.12933326 0.8625412 0.78476626 255 80 80
0.12991665 0.86165047 0.76738739 255 80 80
0.13202295 0.87067062 0.75221574 255 80 80
0.1320145 0.87019211 0.75055677 255 80 80
0.13150659 0.8668732 0.74976766 255 80 80
0.12851831 0.86642992 0.85944688 255 80 80
0.12851019 0.86596906 0.85784906 255 80 80
0.12850206 0.8655082 0.85625124 255 80 80
0.12815611 0.86309177 0.85501754 255 80 80
0.12781021 0.8606773 0.85379112 255 80 80
0.1278021 0.86021852 0.85220051 255 80 80
0.12728739 0.85683107 0.85117233 255 80 80
0.12727933 0.85637379 0.84958708 255 80 80
0.12727126 0.85591656 0.84800184 255 80 80
0.12726319 0.85545933 0.84641659 255 80 80
0.12776163 0.85792458 0.84424734 255 80 80
0.12775353 0.85746574 0.84265673 255 80 80
0.12774545 0.85700697 0.84106612 255 80 80
0.12807497 0.85849351 0.83907533 255 80 80
0.12840447 0.85997784 0.83707738 255 80 80
0.1292403 0.86437494 0.83446127 255 80 80
0.12956971 0.86585361 0.83244359 255 80 80
0.13040537 0.87024188 0.82979691 255 80 80
0.13039714 0.86977476 0.82817751 255 80 80
0.13038889 0.8693077 0.82655811 255 80 80
0.12986618 0.86546803 0.82396269 255 80 80
0.13036416 0.86790645 0.82169998 255 80 80
0.13035592 0.86743933 0.82008058 255 80 80
0.1297676 0.8598817 0.80459476 255 80 80
0.12975939 0.85941619 0.80298072 255 80 80
0.12975118 0.85895067 0.80136669 255 80 80
0.13021579 0.85949892 0.79255098 255 80 80
0.13020755 0.85903186 0.79093158 255 80 80
0.13053641 0.86047995 0.78880787 255 80 80
0.13103376 0.86288297 0.78642291 255 80 80
0.13102548 0.86241335 0.78479451 255 80 80
0.131633 0.86246556 0.77068692 255 80 80
0.13162467 0.86199379 0.76905131 255 80 80
0.13161635 0.86152202 0.76741576 255 80 80
0.13160802 0.86105031 0.76578021 255 80 80
0.13159969 0.86057854 0.76414466 255 80 80
0.13374692 0.87054032 0.75224447 255 80 80
0.13373847 0.87006187 0.75058556 255 80 80
0.13017878 0.86630446 0.8594746 255 80 80
0.13017066 0.86584359 0.85787678 255 80 80
0.13016252 0.86538273 0.85627896 255 80 80
0.12981284 0.86296654 0.85504526 255 80 80
0.12895092 0.85762101 0.8543703 255 80 80
0.12894285 0.85716379 0.85278511 255 80 80
0.12893479 0.85670656 0.85119987 255 80 80
0.12892672 0.85624933 0.84961462 255 80 80
0.12891865 0.85579211 0.84802938 255 80 80
0.12891057 0.85533488 0.84644413 255 80 80
0.12941463 0.85779965 0.844275 255 80 80
0.12940654 0.85734087 0.84268433 255 80 80
0.12939844 0.85688204 0.84109372 255 80 80
0.1297317 0.85836828 0.83910298 255 80 80
0.13040628 0.86179626 0.83670145 255 80 80
0.1309101 0.86424875 0.83448917 255 80 80
0.13124324 0.86572713 0.83247149 255 80 80
0.13208826 0.87011468 0.82982504 255 80 80
0.13208002 0.86964762 0.82820565 255 80 80
0.13241303 0.87111926 0.8261646 255 80 80
0.13333268 0.86233711 0.7707153 255 80 80
0.13332435 0.86186534 0.76907974 255 80 80
0.13331604 0.86139357 0.76744419 255 80 80
0.13330771 0.86092186 0.76580858 255 80 80
0.13329938 0.86045009 0.76417303 255 80 80
0.13329107 0.85997832 0.76253748 255 80 80
0.13328274 0.85950661 0.76090193 255 80 80
0.13327441 0.85903484 0.75926638 255 80 80
0.13377683 0.8614074 0.75677729 255 80 80
0.1354709 0.87041003 0.75227332 255 80 80
0.13183925 0.86617893 0.85950232 255 80 80
0.13113239 0.86134505 0.85702765 255 80 80
0.13112429 0.86088628 0.85543704 255 80 80
0.13059832 0.8574965 0.85439783 255 80 80
0.13059026 0.85703927 0.85281259 255 80 80
0.13058218 0.85658205 0.85122734 255 80 80
0.13057411 0.85612482 0.8496421 255 80 80
0.13056605 0.85566759 0.84805685 255 80 80
0.13055798 0.85521036 0.84647167 255 80 80
0.13106763 0.85767472 0.84430259 255 80 80
0.13105953 0.85721594 0.84271193 255 80 80
0.13139656 0.8587029 0.84072489 255 80 80
0.13173352 0.86018771 0.83873069 255 80 80
0.13207048 0.86167049 0.83672929 255 80 80
0.13257992 0.86412257 0.83451706 255 80 80
0.13326183 0.86754221 0.83208871 255 80 80
0.13377114 0.86998749 0.82985318 255 80 80
0.13410789 0.8714599 0.82781577 255 80 80
0.13503237 0.86220866 0.77074373 255 80 80
0.13502404 0.86173689 0.76910812 255 80 80
0.13501573 0.86126512 0.76747257 255 80 80
0.1350074 0.86079341 0.76583701 255 80 80
0.13499907 0.86032164 0.7642014 255 80 80
0.13499075 0.85984987 0.76256585 255 80 80
0.13498242 0.85937816 0.7609303 255 80 80
0.13497409 0.85890639 0.75929475 255 80 80
0.13548213 0.86127853 0.75680578 255 80 80
0.13581799 0.86270016 0.7545923 255 80 80
0.13632593 0.86506659 0.75208354 255 80 80
0.13666171 0.86648363 0.74985385 255 80 80
0.13280158 0.86213768 0.86023653 255 80 80
0.13279349 0.8616789 0.85864592 255 80 80
0.13278538 0.86122012 0.85705525 255 80 80
0.13277729 0.86076134 0.85546464 255 80 80
0.1327692 0.86030257 0.85387397 255 80 80
0.13276109 0.85984373 0.85228336 255 80 80
0.132753 0.85938495 0.85069275 255 80 80
0.13274491 0.85892618 0.84910208 255 80 80
0.1327368 0.8584674 0.84751147 255 80 80
0.13307762 0.85995722 0.84553528 255 80 80
0.13306952 0.85949737 0.84394103 255 80 80
0.13306141 0.85903758 0.84234679 255 80 80
0.13340214 0.8605231 0.84035623 255 80 80
0.13374282 0.86200666 0.83835852 255 80 80
0.1342579 0.86445981 0.83615178 255 80 80
0.13547051 0.87079448 0.83312005 255 80 80
0.13546227 0.87032741 0.83150065 255 80 80
0.13580278 0.8718006 0.82946694 255 80 80
0.13579452 0.87133247 0.82784396 255 80 80
0.13725424 0.86493611 0.76996189 255 80 80
0.13724589 0.86446279 0.76832092 255 80 80
0.13723753 0.86398953 0.76668 255 80 80
0.13722917 0.86351621 0.76503903 255 80 80
0.13722083 0.86304289 0.76339805 255 80 80
0.13721249 0.86256957 0.76175714 255 80 80
0.13720413 0.86209631 0.76011616 255 80 80
0.13719577 0.86162299 0.75847518 255 80 80
0.13718742 0.86114967 0.75683427 255 80 80
0.13752702 0.862571 0.75462079 255 80 80
0.13804056 0.86493701 0.75211215 255 80 80
0.13838008 0.86635375 0.74988252 255 80 80
0.13444647 0.86155403 0.85867351 255 80 80
0.13443838 0.86109519 0.85708284 255 80 80
0.13390116 0.85770476 0.85603809 255 80 80
0.1338931 0.85724753 0.85445285 255 80 80
0.13441409 0.85971886 0.85231102 255 80 80
0.134406 0.85926002 0.85072035 255 80 80
0.13439789 0.85880125 0.84912968 255 80 80
0.1343898 0.85834247 0.84753907 255 80 80
0.13473436 0.85983199 0.84556293 255 80 80
0.13472624 0.8593722 0.84396875 255 80 80
0.13471812 0.85891235 0.84237444 255 80 80
0.13506261 0.86039764 0.84038401 255 80 80
0.13540703 0.8618809 0.8383863 255 80 80
0.13592771 0.86433363 0.83617967 255 80 80
0.13715339 0.87066734 0.83314812 255 80 80
0.13714513 0.87020022 0.83152878 255 80 80
0.13748938 0.87167311 0.82949513 255 80 80
0.13748112 0.87120497 0.82787216 255 80 80
0.13800156 0.8736437 0.82561696 255 80 80
0.13895953 0.86480725 0.76999038 255 80 80
0.13895118 0.86433393 0.76834941 255 80 80
0.13894282 0.86386067 0.76670849 255 80 80
0.13893446 0.86338735 0.76506752 255 80 80
0.13892612 0.86291403 0.76342654 255 80 80
0.13891777 0.86244071 0.76178563 255 80 80
0.13890941 0.86196744 0.76014465 255 80 80
0.13890105 0.86149412 0.75850368 255 80 80
0.13889271 0.8610208 0.75686276 255 80 80
0.13923605 0.86244184 0.7546494 255 80 80
0.13922767 0.8619675 0.75300479 255 80 80
0.13974679 0.86433154 0.7504909 255 80 80
0.13973838 0.86385566 0.74884093 255 80 80
0.13718534 0.8682217 0.86083388 255 80 80
0.1371772 0.86775982 0.85923249 255 80 80
0.13716903 0.86729795 0.85763109 255 80 80
0.13609138 0.86097032 0.8571105 255 80 80
0.13554856 0.8575803 0.85606563 255 80 80
0.13554049 0.85712308 0.85448039 255 80 80
0.13606709 0.85959393 0.85233855 255 80 80
0.13605899 0.85913515 0.85074794 255 80 80
0.13640732 0.86062646 0.84877908 255 80 80
0.13639921 0.86016661 0.84718484 255 80 80
0.13639109 0.85970682 0.84559059 255 80 80
0.13638297 0.85924697 0.84399641 255 80 80
0.13637486 0.85878718 0.84240216 255 80 80
0.13707939 0.86221701 0.84001553 255 80 80
0.1376057 0.86467093 0.83781439 255 80 80
0.1375975 0.86420745 0.83620757 255 80 80
0.13830185 0.86762744 0.83378679 255 80 80
0.13829365 0.86716193 0.83217275 255 80 80
0.13881978 0.86960596 0.82993746 255 80 80
0.13916774 0.87107754 0.82790029 255 80 80
0.13969377 0.87351584 0.82564527 255 80 80
0.14063975 0.86325848 0.76509601 255 80 80
0.14063141 0.86278516 0.76345503 255 80 80
0.14062306 0.86231184 0.76181412 255 80 80
0.1406147 0.86183852 0.76017314 255 80 80
0.14060634 0.86136526 0.75853217 255 80 80
0.140598 0.86089194 0.75689125 255 80 80
0.14058965 0.86041862 0.75525028 255 80 80
0.1409367 0.86183834 0.7530334 255 80 80
0.14092834 0.86136401 0.75138879 255 80 80
0.14145303 0.86372608 0.74886954 255 80 80
0.13884954 0.86809593 0.86086172 255 80 80
0.13884139 0.86763406 0.85926032 255 80 80
0.13883324 0.86717218 0.85765886 255 80 80
0.13846485 0.86475527 0.85641766 255 80 80
0.13719594 0.85745579 0.85609317 255 80 80
0.13718788 0.85699856 0.85450792 255 80 80
0.13772008 0.859469 0.85236621 255 80 80
0.13771199 0.85901022 0.8507756 255 80 80
0.13806406 0.86050129 0.84880674 255 80 80
0.13805594 0.86004144 0.84721255 255 80 80
0.13804781 0.85958159 0.84561825 255 80 80
0.13803971 0.8591218 0.84402406 255 80 80
0.13839166 0.8606075 0.84203732 255 80 80
0.13874358 0.86209124 0.84004331 255 80 80
0.13873543 0.86162937 0.83844191 255 80 80
0.13926733 0.86408126 0.83623546 255 80 80
0.13961914 0.86555928 0.83422172 255 80 80
0.13997093 0.86703521 0.83220077 255 80 80
0.14050266 0.86947882 0.82996559 255 80 80
0.14049441 0.8690117 0.82834625 255 80 80
0.1408461 0.87048197 0.82630551 255 80 80
0.14234506 0.86312962 0.7651245 255 80 80
0.14179784 0.85980785 0.76431501 255 80 80
0.14178951 0.85933614 0.76267946 255 80 80
0.14232001 0.86170965 0.76020163 255 80 80
0.14231165 0.86123639 0.75856066 255 80 80
0.14230329 0.86076307 0.75691974 255 80 80
0.14229494 0.86028975 0.75527877 255 80 80
0.14264575 0.86170924 0.75306195 255 80 80
0.14263737 0.86123484 0.7514174 255 80 80
0.14316764 0.8635965 0.74889821 255 80 80
0.14051375 0.86797017 0.86088955 255 80 80
0.1405056 0.86750829 0.8592881 255 80 80
0.14013346 0.86509067 0.85804325 255 80 80
0.14012532 0.86462981 0.85644543 255 80 80
0.13938928 0.86026168 0.85557508 255 80 80
0.13938117 0.8598029 0.85398448 255 80 80
0.13937308 0.85934407 0.85239387 255 80 80
0.13972889 0.86083591 0.85042864 255 80 80
0.13972077 0.86037606 0.8488344 255 80 80
0.13971266 0.85991621 0.84724021 255 80 80
0.13970456 0.85945642 0.84564596 255 80 80
0.13969643 0.85899657 0.84405172 255 80 80
0.13968831 0.85853678 0.84245753 255 80 80
0.140044 0.86002117 0.84046721 255 80 80
0.14039963 0.8615036 0.83846968 255 80 80
0.14093712 0.86395508 0.83626336 255 80 80
0.14129268 0.8654328 0.83424968 255 80 80
0.1416482 0.86690843 0.83222884 255 80 80
0.14218554 0.86935163 0.82999372 255 80 80
0.1421773 0.86888456 0.82837433 255 80 80
0.14253271 0.87035453 0.8263337 255 80 80
0.14349753 0.8596794 0.76434344 255 80 80
0.14348918 0.85920769 0.76270783 255 80 80
0.1440253 0.86158079 0.76023012 255 80 80
0.14401694 0.86110753 0.75858915 255 80 80
0.14400858 0.86063421 0.75694823 255 80 80
0.14400023 0.86016089 0.75530726 255 80 80
0.14435476 0.86158007 0.7530905 255 80 80
0.1443464 0.86110574 0.75144595 255 80 80
0.14433803 0.86063135 0.7498014 255 80 80
0.14217794 0.8678444 0.86091733 255 80 80
0.1421698 0.86738253 0.85931587 255 80 80
0.14179392 0.8649652 0.85807097 255 80 80
0.14178579 0.86450434 0.85647315 255 80 80
0.14104226 0.86013675 0.85560274 255 80 80
0.14103417 0.85967797 0.85401207 255 80 80
0.14102608 0.85921919 0.8524214 255 80 80
0.14138561 0.86071068 0.85045636 255 80 80
0.14100988 0.85830158 0.84924018 255 80 80
0.14100179 0.8578428 0.84764957 255 80 80
0.14099368 0.85738403 0.84605891 255 80 80
0.14098559 0.85692525 0.8444683 255 80 80
0.14134505 0.85841155 0.84248519 255 80 80
0.14170447 0.85989571 0.84049493 255 80 80
0.14206383 0.86137784 0.83849752 255 80 80
0.14260691 0.8638289 0.83629131 255 80 80
0.14296623 0.86530638 0.83427763 255 80 80
0.14332548 0.86678165 0.83225685 255 80 80
0.14386842 0.86922443 0.83002186 255 80 80
0.14422759 0.87069517 0.82798487 255 80 80
0.14421934 0.87022704 0.82636189 255 80 80
0.14476214 0.87266248 0.82410169 255 80 80
0.14512122 0.87412751 0.82204497 255 80 80
0.14548025 0.87559044 0.81998104 255 80 80
0.14573058 0.86145192 0.76025862 255 80 80
0.14572224 0.86097866 0.75861764 255 80 80
0.1457139 0.86050534 0.75697672 255 80 80
0.14570554 0.86003202 0.75533575 255 80 80
0.1460638 0.86145091 0.75311905 255 80 80
0.14605543 0.86097658 0.7514745 255 80 80
0.14604706 0.86050224 0.74982995 255 80 80
0.14383399 0.86725676 0.85934371 255 80 80
0.14345439 0.86483973 0.85809875 255 80 80
0.14344625 0.86437887 0.85650086 255 80 80
0.14269526 0.86001182 0.85563034 255 80 80
0.14268717 0.85955304 0.85403967 255 80 80
0.14305046 0.8610453 0.8520782 255 80 80
0.14304236 0.86058551 0.85048401 255 80 80
0.14266288 0.85817665 0.84926778 255 80 80
0.14265478 0.85771787 0.84767717 255 80 80
0.14264669 0.85725909 0.8460865 255 80 80
0.14263859 0.85680032 0.84449589 255 80 80
0.14300178 0.85828638 0.84251285 255 80 80
0.14336494 0.85977024 0.84052271 255 80 80
0.14372803 0.86125207 0.8385253 255 80 80
0.14427674 0.86370271 0.83631921 255 80 80
0.14463976 0.8651799 0.83430558 255 80 80
0.14500275 0.86665493 0.83228487 255 80 80
0.14555129 0.86909729 0.83004999 255 80 80
0.1459142 0.87056768 0.82801306 255 80 80
0.14646265 0.87300432 0.82575834 255 80 80
0.14645436 0.87253463 0.82412994 255 80 80
0.14681718 0.87399936 0.82207328 255 80 80
0.14680886 0.87352866 0.82044131 255 80 80
0.14680055 0.8730579 0.81880933 255 80 80
0.14679225 0.8725872 0.81717741 255 80 80
0.14585638 0.86729085 0.81665218 255 80 80
0.14584811 0.86682272 0.81502914 255 80 80
0.14742753 0.86084974 0.75864613 255 80 80
0.14741918 0.86037648 0.75700521 255 80 80
0.14741082 0.85990316 0.75536424 255 80 80
0.14777282 0.86132175 0.7531476 255 80 80
0.14776446 0.86084741 0.75150305 255 80 80
0.14775608 0.86037308 0.7498585 255 80 80
0.14511485 0.86471421 0.85812646 255 80 80
0.14510672 0.86425334 0.85652864 255 80 80
0.14472342 0.86183977 0.85529435 255 80 80
0.14471531 0.86137992 0.85370016 255 80 80
0.1447072 0.86092013 0.85210592 255 80 80
0.14469908 0.86046028 0.85051167 255 80 80
0.14431587 0.85805178 0.84929538 255 80 80
0.14430778 0.85759294 0.84770477 255 80 80
0.14429969 0.85713416 0.84611416 255 80 80
0.14429158 0.85667539 0.84452355 255 80 80
0.14428349 0.85621661 0.84293288 255 80 80
0.1446504 0.8577013 0.84094632 255 80 80
0.14501727 0.85918385 0.8389526 255 80 80
0.14538407 0.86066437 0.83695173 255 80 80
0.14668824 0.86699373 0.83392692 255 80 80
0.14668003 0.86652815 0.83231288 255 80 80
0.14723417 0.8689701 0.83007807 255 80 80
0.14760081 0.87044024 0.8280412 255 80 80
0.14759256 0.86997211 0.82641822 255 80 80
0.14814657 0.87240672 0.82415825 255 80 80
0.14813828 0.87193704 0.82252985 255 80 80
0.14813 0.87146735 0.82090151 255 80 80
0.14812171 0.87099773 0.81927311 255 80 80
0.14811343 0.87052804 0.81764472 255 80 80
0.14754298 0.86716342 0.81668031 255 80 80
0.14753473 0.86669528 0.81505734 255 80 80
0.14752647 0.86622715 0.81343436 255 80 80
0.1494986 0.86214131 0.75646526 255 80 80
0.14949024 0.86166692 0.7548207 255 80 80
0.14948186 0.86119258 0.75317615 255 80 80
0.14947349 0.86071825 0.7515316 255 80 80
0.14946511 0.86024392 0.74988705 255 80 80
0.14677532 0.86458874 0.85815418 255 80 80
0.14676718 0.86412787 0.85655642 255 80 80
0.14638016 0.86171454 0.855322 255 80 80
0.14637205 0.86125475 0.85372782 255 80 80
0.14636393 0.8607949 0.85213357 255 80 80
0.14597696 0.85838562 0.85091364 255 80 80
0.14596887 0.85792685 0.84932303 255 80 80
0.14596078 0.85746807 0.84773242 255 80 80
0.14595267 0.85700923 0.84614176 255 80 80
0.14594458 0.85655046 0.84455115 255 80 80
0.14593649 0.85609168 0.84296048 255 80 80
0.14630714 0.85757613 0.84097397 255 80 80
0.14667773 0.85905838 0.83898032 255 80 80
0.14704829 0.8605386 0.83697951 255 80 80
0.14836553 0.86686695 0.83395493 255 80 80
0.1483573 0.86640143 0.8323409 255 80 80
0.14891705 0.8688429 0.8301062 255 80 80
0.14928743 0.87031281 0.82806939 255 80 80
0.14927918 0.86984468 0.82644641 255 80 80
0.14983881 0.87227887 0.8241865 255 80 80
0.14926265 0.86890841 0.82320046 255 80 80
0.14925438 0.86844033 0.82157743 255 80 80
0.14924613 0.8679722 0.81995451 255 80 80
0.14923787 0.86750406 0.81833148 255 80 80
0.14922962 0.86703593 0.81670851 255 80 80
0.14922135 0.86656785 0.81508553 255 80 80
0.14921309 0.86609972 0.81346256 255 80 80
0.14920482 0.86563158 0.81183958 255 80 80
0.14913048 0.86141849 0.79723275 255 80 80
0.14912222 0.86095035 0.79560971 255 80 80
0.15120763 0.86201215 0.75649381 255 80 80
0.15119925 0.86153781 0.75484926 255 80 80
0.15119088 0.86106342 0.7532047 255 80 80
0.15118252 0.86058909 0.75156015 255 80 80
0.15117414 0.86011475 0.7499156 255 80 80
0.1488266 0.86687946 0.85942709 255 80 80
0.14843579 0.86446327 0.85818195 255 80 80
0.14842765 0.86400241 0.85658413 255 80 80
0.14803688 0.86158937 0.85534972 255 80 80
0.14802876 0.86112952 0.85375547 255 80 80
0.14802065 0.86066973 0.85216129 255 80 80
0.14762995 0.85826069 0.8509413 255 80 80
0.14762187 0.85780191 0.84935063 255 80 80
0.14761376 0.85734314 0.84776002 255 80 80
0.14760566 0.85688436 0.84616935 255 80 80
0.14759758 0.85642558 0.84457874 255 80 80
0.14758947 0.85596675 0.84298813 255 80 80
0.14796385 0.8574509 0.84100169 255 80 80
0.14795575 0.85699111 0.83940744 255 80 80
0.14833006 0.85847205 0.83741027 255 80 80
0.14927796 0.86286068 0.83479607 255 80 80
0.15003458 0.86627465 0.83236897 255 80 80
0.15059993 0.86871576 0.83013427 255 80 80
0.15059169 0.86824864 0.82851493 255 80 80
0.15096578 0.86971724 0.82647461 255 80 80
0.15095752 0.86924911 0.82485163 255 80 80
0.15094927 0.86878097 0.8232286 255 80 80
0.150941 0.86831284 0.82160562 255 80 80
0.15093274 0.86784476 0.81998265 255 80 80
0.15092447 0.86737663 0.81835967 255 80 80
0.15091622 0.86690849 0.8167367 255 80 80
0.15052575 0.86451197 0.8155598 255 80 80
0.15051751 0.8640449 0.81394041 255 80 80
0.15050927 0.86357784 0.81232107 255 80 80
0.15046805 0.86124241 0.80422407 255 80 80
0.15045981 0.86077529 0.80260468 255 80 80
0.15045157 0.86030823 0.80098534 255 80 80
0.15044332 0.85984117 0.79936594 255 80 80
0.1508171 0.86129105 0.79726088 255 80 80
0.15080884 0.86082292 0.79563791 255 80 80
0.15080057 0.86035478 0.79401493 255 80 80
0.1507923 0.85988665 0.79239196 255 80 80
0.15291665 0.86188298 0.75652236 255 80 80
0.1529083 0.86140865 0.75487781 255 80 80
0.15289992 0.86093432 0.75323325 255 80 80
0.15289155 0.86045998 0.7515887 255 80 80
0.15288317 0.85998559 0.74994415 255 80 80
0.15049081 0.8667537 0.85945493 255 80 80
0.15048265 0.86629182 0.85785353 255 80 80
0.15008812 0.86387694 0.85661185 255 80 80
0.14969361 0.86146414 0.85537744 255 80 80
0.1496855 0.86100435 0.85378319 255 80 80
0.14929105 0.8585946 0.85255951 255 80 80
0.14928296 0.85813582 0.8509689 255 80 80
0.14927486 0.85767698 0.84937823 255 80 80
0.14926676 0.85721821 0.84778762 255 80 80
0.14925867 0.85675943 0.84619701 255 80 80
0.14925057 0.85630065 0.8446064 255 80 80
0.14924248 0.85584188 0.84301573 255 80 80
0.14962059 0.85732573 0.84102935 255 80 80
0.14961247 0.85686588 0.8394351 255 80 80
0.14999053 0.85834658 0.83743799 255 80 80
0.15094776 0.8627345 0.83482397 255 80 80
0.15132573 0.86420953 0.83280706 255 80 80
0.1522828 0.86858857 0.83016241 255 80 80
0.15227458 0.8681215 0.82854307 255 80 80
0.15265241 0.86958975 0.8265028 255 80 80
0.15264414 0.86912161 0.82487977 255 80 80
0.15263587 0.86865354 0.82325679 255 80 80
0.15262762 0.8681854 0.82163382 255 80 80
0.15223336 0.86578608 0.82044607 255 80 80
0.15222511 0.86531895 0.81882668 255 80 80
0.15221688 0.86485189 0.81720734 255 80 80
0.15220863 0.86438483 0.81558794 255 80 80
0.1522004 0.86391771 0.81396854 255 80 80
0.15122736 0.8586356 0.81348222 255 80 80
0.15121916 0.85817111 0.81187183 255 80 80
0.15121096 0.85770661 0.81026143 255 80 80
0.15158862 0.85916495 0.80818701 255 80 80
0.15158041 0.85869944 0.80657303 255 80 80
0.1515722 0.85823393 0.804959 255 80 80
0.1521427 0.86064816 0.80263281 255 80 80
0.15213445 0.86018103 0.80101341 255 80 80
0.15212621 0.85971397 0.79939401 255 80 80
0.1525037 0.86116356 0.79728907 255 80 80
0.15249544 0.86069548 0.7956661 255 80 80
0.15248719 0.86022735 0.79404312 255 80 80
0.15247893 0.85975921 0.79242015 255 80 80
0.15247066 0.85929108 0.79079711 255 80 80
0.15246241 0.858823 0.78917414 255 80 80
0.15424034 0.85986096 0.75711918 255 80 80
0.154232 0.8593877 0.7554782 255 80 80
0.15422365 0.85891438 0.75383723 255 80 80
0.15460056 0.86033082 0.75161725 255 80 80
0.15459219 0.85985649 0.7499727 255 80 80
0.15215501 0.86662793 0.85948277 255 80 80
0.15214686 0.86616606 0.85788131 255 80 80
0.15135847 0.86179882 0.85699928 255 80 80
0.15135035 0.86133897 0.85540509 255 80 80
0.15095213 0.85892844 0.85417777 255 80 80
0.15094404 0.85846967 0.8525871 255 80 80
0.15093595 0.85801089 0.85099649 255 80 80
0.15092784 0.85755211 0.84940588 255 80 80
0.15091975 0.85709327 0.84781528 255 80 80
0.15091166 0.8566345 0.84622461 255 80 80
0.15090355 0.85617572 0.844634 255 80 80
0.15089546 0.85571694 0.84304333 255 80 80
0.15127733 0.8572005 0.84105706 255 80 80
0.1512692 0.85674071 0.83946282 255 80 80
0.151651 0.85822105 0.83746576 255 80 80
0.15203275 0.85969943 0.8354615 255 80 80
0.15299927 0.86408305 0.83283502 255 80 80
0.15396568 0.86846137 0.83019054 255 80 80
0.15395746 0.86799431 0.82857114 255 80 80
0.15433902 0.86946231 0.82653093 255 80 80
0.15394098 0.86706012 0.8253324 255 80 80
0.15393272 0.86659306 0.823713 255 80 80
0.15392448 0.86612594 0.82209361 255 80 80
0.15294188 0.86083162 0.82156217 255 80 80
0.15293369 0.86036712 0.81995177 255 80 80
0.15292549 0.85990262 0.81834137 255 80 80
0.1529173 0.85943812 0.81673098 255 80 80
0.1529091 0.85897362 0.81512058 255 80 80
0.15251125 0.85658336 0.81396335 255 80 80
0.15250307 0.85611993 0.81235653 255 80 80
0.15249491 0.8556565 0.81074977 255 80 80
0.15287632 0.85711563 0.80867898 255 80 80
0.1532577 0.85857272 0.80660105 255 80 80
0.15324947 0.85810715 0.80498707 255 80 80
0.15382558 0.86052096 0.80266094 255 80 80
0.15381733 0.8600539 0.80104154 255 80 80
0.15380909 0.85958678 0.79942214 255 80 80
0.15380085 0.85911971 0.79780275 255 80 80
0.15379259 0.85865259 0.79618335 255 80 80
0.15378436 0.85818553 0.79456401 255 80 80
0.15377611 0.85771847 0.79294461 255 80 80
0.15376787 0.85725135 0.79132521 255 80 80
0.15414903 0.85869551 0.78920233 255 80 80
0.15414077 0.85822737 0.78757936 255 80 80
0.1541325 0.8577593 0.78595638 255 80 80
0.15594564 0.85973209 0.75714767 255 80 80
0.15593728 0.85925883 0.75550669 255 80 80
0.15592894 0.85878551 0.75386572 255 80 80
0.1563096 0.86020166 0.7516458 255 80 80
0.15630123 0.85972732 0.75000125 255 80 80
0.15303141 0.86259323 0.86021543 255 80 80
0.1530233 0.86213344 0.85862124 255 80 80
0.15262133 0.85972112 0.85738665 255 80 80
0.15261322 0.85926235 0.85579604 255 80 80
0.15260515 0.85880351 0.85420537 255 80 80
0.15259704 0.85834473 0.85261476 255 80 80
0.15258893 0.85788596 0.85102415 255 80 80
0.15258086 0.85742718 0.84943348 255 80 80
0.15257275 0.8569684 0.84784287 255 80 80
0.15256464 0.85650957 0.8462522 255 80 80
0.15255657 0.85605079 0.84466159 255 80 80
0.15254846 0.85559201 0.84307098 255 80 80
0.15293404 0.85707533 0.84108472 255 80 80
0.15292592 0.85661548 0.83949053 255 80 80
0.15331146 0.85809559 0.83749354 255 80 80
0.15369695 0.85957366 0.83548933 255 80 80
0.1542792 0.86201864 0.83327293 255 80 80
0.15505819 0.86542886 0.83083904 255 80 80
0.15504998 0.86496335 0.829225 255 80 80
0.15563209 0.86740005 0.82697988 255 80 80
0.15562385 0.86693299 0.82536048 255 80 80
0.1556156 0.86646587 0.82374108 255 80 80
0.15462363 0.86116964 0.82320058 255 80 80
0.15422195 0.85877448 0.8220253 255 80 80
0.15421379 0.858311 0.82041848 255 80 80
0.15420559 0.85784757 0.81881166 255 80 80
0.15419742 0.85738409 0.81720483 255 80 80
0.15418924 0.85692066 0.81559807 255 80 80
0.15418106 0.85645717 0.81399125 255 80 80
0.15417288 0.85599375 0.81238443 255 80 80
0.1541647 0.85553026 0.81077766 255 80 80
0.15415654 0.85506684 0.80917084 255 80 80
0.15454166 0.85652471 0.80709654 255 80 80
0.15453346 0.85606021 0.80548614 255 80 80
0.15491854 0.85751492 0.80340105 255 80 80
0.15491033 0.85704935 0.80178708 255 80 80
0.1549021 0.85658383 0.80017304 255 80 80
0.15548372 0.85899252 0.79783088 255 80 80
0.15547548 0.85852545 0.79621148 255 80 80
0.15546724 0.85805833 0.79459214 255 80 80
0.155459 0.85759127 0.79297268 255 80 80
0.15545076 0.85712421 0.79135334 255 80 80
0.15544251 0.85665709 0.78973395 255 80 80
0.15543428 0.85619003 0.78811455 255 80 80
0.15542603 0.85572296 0.78649515 255 80 80
0.15541779 0.85525584 0.78487575 255 80 80
0.15540954 0.85478878 0.78325641 255 80 80
0.15579432 0.85622746 0.78111559 255 80 80
0.15578607 0.85575932 0.77949262 255 80 80
0.15538481 0.85338753 0.77839822 255 80 80
0.15537658 0.85292041 0.77677882 255 80 80
0.15804374 0.86149555 0.75660801 255 80 80
0.15803537 0.86102116 0.75496346 255 80 80
0.15802699 0.86054683 0.75331891 255 80 80
0.15801863 0.86007249 0.75167435 255 80 80
0.15801026 0.85959816 0.7500298 255 80 80
0.15468815 0.86246806 0.86024308 255 80 80
0.15468004 0.86200821 0.8586489 255 80 80
0.15427433 0.85959619 0.85741425 255 80 80
0.15426624 0.85913742 0.85582364 255 80 80
0.15425813 0.85867864 0.85423303 255 80 80
0.15365374 0.85529637 0.85319793 255 80 80
0.15364566 0.85483915 0.85161269 255 80 80
0.15423384 0.85730225 0.84946108 255 80 80
0.15422575 0.85684347 0.84787047 255 80 80
0.15421766 0.85638469 0.84627986 255 80 80
0.15420955 0.85592586 0.84468925 255 80 80
0.15420146 0.85546708 0.84309858 255 80 80
0.15419337 0.8550083 0.84150791 255 80 80
0.15458265 0.85649031 0.83951819 255 80 80
0.15497193 0.85797012 0.83752126 255 80 80
0.15496379 0.85750926 0.83592343 255 80 80
0.155949 0.86189246 0.83330083 255 80 80
0.15633816 0.86336559 0.83128053 255 80 80
0.15672725 0.86483657 0.82925302 255 80 80
0.15671904 0.86437106 0.82763904 255 80 80
0.15671083 0.86390555 0.82602501 255 80 80
0.15590811 0.85957521 0.82526678 255 80 80
0.15589993 0.85911173 0.82366002 255 80 80
0.15589175 0.8586483 0.82205319 255 80 80
0.15588358 0.85818481 0.82044637 255 80 80
0.15587538 0.85772139 0.81883955 255 80 80
0.15586722 0.8572579 0.81723273 255 80 80
0.15585904 0.85679448 0.81562597 255 80 80
0.15525517 0.85344321 0.8146987 255 80 80
0.15524703 0.85298133 0.8130973 255 80 80
0.15523887 0.85251939 0.8114959 255 80 80
0.15523073 0.85205752 0.80989444 255 80 80
0.15581813 0.85447717 0.80759192 255 80 80
0.156207 0.85593373 0.8055141 255 80 80
0.1561988 0.85546923 0.8039037 255 80 80
0.1565876 0.85692263 0.80181509 255 80 80
0.15657939 0.85645705 0.80020106 255 80 80
0.15657118 0.85599154 0.79858708 255 80 80
0.15656295 0.85552603 0.79697311 255 80 80
0.15655474 0.85506052 0.79535913 255 80 80
0.15654653 0.85459495 0.7937451 255 80 80
0.15653831 0.85412943 0.79213113 255 80 80
0.15712538 0.85652995 0.78976202 255 80 80
0.15711714 0.85606283 0.78814268 255 80 80
0.1571089 0.85559577 0.78652328 255 80 80
0.15710065 0.85512871 0.78490388 255 80 80
0.15709242 0.85466158 0.78328449 255 80 80
0.15748096 0.85609996 0.78114378 255 80 80
0.15747268 0.85563189 0.77952081 255 80 80
0.15706769 0.85326034 0.77842635 255 80 80
0.15705945 0.85279328 0.77680695 255 80 80
0.15705121 0.85232615 0.77518755 255 80 80
0.15936458 0.85994768 0.75884557 255 80 80
0.15935624 0.85947436 0.75720465 255 80 80
0.15934788 0.85900104 0.75556368 255 80 80
0.15933952 0.85852778 0.7539227 255 80 80
0.15933117 0.85805446 0.75228179 255 80 80
0.15932283 0.85758114 0.75064081 255 80 80
0.15931447 0.85710782 0.74899983 255 80 80
0.15594351 0.86038888 0.86062312 255 80 80
0.15633677 0.86188304 0.85867655 255 80 80
0.15592733 0.85947126 0.8574419 255 80 80
0.15591922 0.85901248 0.85585129 255 80 80
0.15591113 0.85855371 0.85426062 255 80 80
0.15530112 0.85517192 0.85322547 255 80 80
0.15529305 0.85471463 0.85164022 255 80 80
0.15588684 0.85717732 0.84948874 255 80 80
0.15587875 0.85671854 0.84789813 255 80 80
0.15587065 0.85625976 0.84630746 255 80 80
0.15586255 0.85580099 0.84471685 255 80 80
0.15585446 0.85534215 0.84312618 255 80 80
0.15584636 0.85488337 0.84153557 255 80 80
0.15583827 0.8544246 0.83994496 255 80 80
0.15623128 0.85590529 0.83795166 255 80 80
0.15622316 0.85544544 0.83635741 255 80 80
0.1570172 0.85886025 0.83394349 255 80 80
0.15761063 0.86130285 0.8317219 255 80 80
0.15840453 0.86470985 0.82928103 255 80 80
0.15839632 0.86424434 0.82766706 255 80 80
0.1575861 0.85991246 0.8269015 255 80 80
0.15757792 0.85944903 0.82529473 255 80 80
0.1569683 0.85608882 0.82433498 255 80 80
0.15696014 0.85562694 0.82273358 255 80 80
0.15695199 0.85516506 0.82113218 255 80 80
0.15694384 0.85470313 0.81953073 255 80 80
0.15693569 0.85424125 0.81792933 255 80 80
0.15692753 0.85377932 0.81632793 255 80 80
0.15691939 0.85331744 0.81472653 255 80 80
0.15691122 0.85285556 0.81312513 255 80 80
0.15690309 0.85239363 0.81152368 255 80 80
0.15689492 0.85193175 0.80992228 255 80 80
0.15688679 0.85146981 0.80832088 255 80 80
0.15747978 0.85388756 0.80601299 255 80 80
0.15787235 0.85534275 0.80393165 255 80 80
0.15786415 0.85487825 0.80232126 255 80 80
0.15785596 0.85441381 0.80071086 255 80 80
0.15824845 0.85586482 0.7986151 255 80 80
0.15783955 0.85348481 0.79749006 255 80 80
0.15783136 0.85302031 0.7958796 255 80 80
0.15782316 0.85255581 0.7942692 255 80 80
0.15781496 0.85209131 0.79265881 255 80 80
0.15780677 0.85162681 0.79104841 255 80 80
0.15819916 0.85307163 0.78893113 255 80 80
0.15819094 0.85260612 0.78731716 255 80 80
0.15878354 0.85500151 0.78493202 255 80 80
0.1587753 0.85453445 0.78331262 255 80 80
0.15876706 0.85406733 0.78169322 255 80 80
0.1591593 0.85550439 0.779549 255 80 80
0.15875056 0.85313314 0.77845442 255 80 80
0.15874234 0.85266608 0.77683508 255 80 80
0.15873408 0.85219902 0.77521569 255 80 80
0.15912625 0.85363191 0.77305704 255 80 80
0.16106987 0.85981882 0.75887406 255 80 80
0.16106153 0.8593455 0.75723314 255 80 80
0.16105318 0.85887218 0.75559217 255 80 80
0.16104482 0.85839891 0.75395119 255 80 80
0.16103646 0.85792559 0.75231028 255 80 80
0.16102812 0.85745227 0.7506693 255 80 80
0.16101977 0.85697895 0.74902833 255 80 80
0.1575965 0.86026394 0.86065078 255 80 80
0.15758842 0.85980517 0.85906017 255 80 80
0.15758032 0.85934639 0.8574695 255 80 80
0.15757221 0.85888755 0.85587889 255 80 80
0.15756413 0.85842878 0.85428822 255 80 80
0.15694851 0.8550474 0.85325295 255 80 80
0.15694045 0.85459018 0.8516677 255 80 80
0.15693238 0.85413295 0.85008252 255 80 80
0.15692431 0.85367566 0.84849727 255 80 80
0.15691623 0.85321844 0.84691203 255 80 80
0.15751556 0.85567605 0.84474444 255 80 80
0.15750745 0.85521728 0.84315383 255 80 80
0.15749936 0.85475844 0.84156322 255 80 80
0.15749127 0.85429966 0.83997256 255 80 80
0.15788801 0.85578007 0.83797932 255 80 80
0.15787989 0.85532027 0.83638507 255 80 80
0.15827659 0.85679746 0.8343811 255 80 80
0.15867326 0.85827255 0.83236992 255 80 80
0.15927225 0.86071318 0.83014297 255 80 80
0.15926409 0.86024976 0.82853621 255 80 80
0.15925591 0.85978627 0.82692939 255 80 80
0.15864065 0.85642499 0.82596421 255 80 80
0.15863249 0.85596311 0.82436281 255 80 80
0.15862435 0.85550117 0.82276142 255 80 80
0.15861619 0.8550393 0.82115996 255 80 80
0.15860805 0.85457736 0.81955856 255 80 80
0.15859988 0.85411549 0.81795716 255 80 80
0.15859173 0.85365361 0.81635571 255 80 80
0.158179 0.85126704 0.81520724 255 80 80
0.15817086 0.85080618 0.81360942 255 80 80
0.15816274 0.85034531 0.8120116 255 80 80
0.15815461 0.84988445 0.81041378 255 80 80
0.15855098 0.85134411 0.80834866 255 80 80
0.15914959 0.85376137 0.80604088 255 80 80
0.15954588 0.85521632 0.80395961 255 80 80
0.15953769 0.85475183 0.80234921 255 80 80
0.15952949 0.85428733 0.80073881 255 80 80
0.1595213 0.85382283 0.79912841 255 80 80
0.15951309 0.85335833 0.79751801 255 80 80
0.1591005 0.85098064 0.79640007 255 80 80
0.15909234 0.85051715 0.79479325 255 80 80
0.15908416 0.85005373 0.79318643 255 80 80
0.1594803 0.85150033 0.79107642 255 80 80
0.15947211 0.85103589 0.78946602 255 80 80
0.15986821 0.85247934 0.78734517 255 80 80
0.15986 0.85201383 0.7857312 255 80 80
0.16045818 0.85440725 0.78334075 255 80 80
0.16044995 0.85394019 0.78172135 255 80 80
0.16084592 0.85537696 0.77957714 255 80 80
0.16043346 0.85300601 0.77848256 255 80 80
0.16042522 0.85253888 0.77686316 255 80 80
0.16041698 0.85207182 0.77524376 255 80 80
0.16081288 0.85350448 0.77308524 255 80 80
0.16080461 0.85303634 0.7714622 255 80 80
0.16277516 0.85968995 0.75890255 255 80 80
0.16276681 0.85921663 0.75726163 255 80 80
0.16275847 0.85874331 0.75562066 255 80 80
0.16275011 0.85827005 0.75397968 255 80 80
0.16274175 0.85779673 0.75233877 255 80 80
0.16273341 0.85732341 0.75069779 255 80 80
0.16272506 0.85685009 0.74905682 255 80 80
0.15924948 0.86013901 0.86067837 255 80 80
0.15924141 0.85968024 0.85908777 255 80 80
0.1592333 0.85922146 0.8574971 255 80 80
0.1592252 0.85876268 0.85590649 255 80 80
0.15921712 0.85830384 0.85431588 255 80 80
0.1585959 0.85492289 0.85328048 255 80 80
0.15858784 0.85446566 0.85169524 255 80 80
0.15857977 0.85400844 0.85010999 255 80 80
0.15857169 0.85355121 0.84852475 255 80 80
0.15856363 0.85309398 0.84693956 255 80 80
0.15916854 0.85555112 0.8447721 255 80 80
0.15916044 0.85509235 0.84318143 255 80 80
0.15915234 0.85463357 0.84159076 255 80 80
0.15914425 0.85417473 0.84000015 255 80 80
0.15954474 0.8556549 0.83800697 255 80 80
0.15994519 0.85713279 0.83600664 255 80 80
0.15993705 0.85667193 0.83440882 255 80 80
0.16033745 0.85814685 0.8323977 255 80 80
0.16094208 0.860587 0.83017093 255 80 80
0.16093388 0.86012352 0.82856411 255 80 80
0.16092572 0.85966009 0.82695729 255 80 80
0.16030484 0.85629922 0.82599205 255 80 80
0.16029669 0.85583735 0.82439065 255 80 80
0.15988012 0.85344589 0.82322407 255 80 80
0.159872 0.85298502 0.82162625 255 80 80
0.15986386 0.85252416 0.82002842 255 80 80
0.15985572 0.8520633 0.8184306 255 80 80
0.15984759 0.85160244 0.81683278 255 80 80
0.15983945 0.85114157 0.81523496 255 80 80
0.15983132 0.85068071 0.81363714 255 80 80
0.15982319 0.85021985 0.81203932 255 80 80
0.15981506 0.84975898 0.81044149 255 80 80
0.15980694 0.84929812 0.80884367 255 80 80
0.16020703 0.85075641 0.80677503 255 80 80
0.16081122 0.85317171 0.80446202 255 80 80
0.16080303 0.85270828 0.80285519 255 80 80
0.16079485 0.85224479 0.80124837 255 80 80
0.16078669 0.85178137 0.79964161 255 80 80
0.16077849 0.85131788 0.79803479 255 80 80
0.16077033 0.85085446 0.79642797 255 80 80
0.16076215 0.85039097 0.79482114 255 80 80
0.16075397 0.84992754 0.79321432 255 80 80
0.16074578 0.84946406 0.7916075 255 80 80
0.16114566 0.85090941 0.78949392 255 80 80
0.16113746 0.85044491 0.78788352 255 80 80
0.16153727 0.85188705 0.78575921 255 80 80
0.16152906 0.85142154 0.78414518 255 80 80
0.16152084 0.85095602 0.7825312 255 80 80
0.16212457 0.85334587 0.78013009 255 80 80
0.16211633 0.85287881 0.77851069 255 80 80
0.16210809 0.85241175 0.77689129 255 80 80
0.16209985 0.85194463 0.77527189 255 80 80
0.16209161 0.85147756 0.77365249 255 80 80
0.16249123 0.85290891 0.7714904 255 80 80
0.16448046 0.85956109 0.75893104 255 80 80
0.1644721 0.85908777 0.75729012 255 80 80
0.16446376 0.85861444 0.75564915 255 80 80
0.16445541 0.85814118 0.75400817 255 80 80
0.16444705 0.85766786 0.75236726 255 80 80
0.16443869 0.85719454 0.75072628 255 80 80
0.16443035 0.85672122 0.74908531 255 80 80
0.16091061 0.86047292 0.86229664 255 80 80
0.16089441 0.8595553 0.85911536 255 80 80
0.16088632 0.85909653 0.85752475 255 80 80
0.16087821 0.85863775 0.85593414 255 80 80
0.16087012 0.85817897 0.85434347 255 80 80
0.1602433 0.85479844 0.85330802 255 80 80
0.16023523 0.85434115 0.85172278 255 80 80
0.16022716 0.85388392 0.85013753 255 80 80
0.1602191 0.85342669 0.84855229 255 80 80
0.16021103 0.85296947 0.84696704 255 80 80
0.16020295 0.85251224 0.8453818 255 80 80
0.16081345 0.85496742 0.84320903 255 80 80
0.16080534 0.85450864 0.84161842 255 80 80
0.16079725 0.85404986 0.84002781 255 80 80
0.16120148 0.85552967 0.83803469 255 80 80
0.16160566 0.85700732 0.83603442 255 80 80
0.16200981 0.85848296 0.83402693 255 80 80
0.16200164 0.85802108 0.83242548 255 80 80
0.16261187 0.86046082 0.83019882 255 80 80
0.16260368 0.85999733 0.828592 255 80 80
0.16259551 0.85953391 0.82698518 255 80 80
0.16155687 0.85424215 0.82644749 255 80 80
0.16154873 0.85378128 0.82484961 255 80 80
0.1615406 0.85332042 0.82325184 255 80 80
0.16112033 0.85093141 0.82209241 255 80 80
0.16111222 0.85047162 0.82049817 255 80 80
0.1611041 0.85001177 0.81890392 255 80 80
0.16150805 0.85147697 0.81686056 255 80 80
0.16149993 0.8510161 0.81526273 255 80 80
0.1614918 0.85055524 0.81366491 255 80 80
0.16148368 0.85009438 0.81206709 255 80 80
0.16147554 0.84963351 0.81046927 255 80 80
0.1614674 0.84917265 0.80887145 255 80 80
0.16145927 0.84871179 0.80727363 255 80 80
0.16145113 0.84825093 0.8056758 255 80 80
0.16185492 0.84970683 0.80360001 255 80 80
0.16184677 0.84924495 0.80199862 255 80 80
0.16183862 0.84878308 0.80039716 255 80 80
0.16244829 0.8511917 0.79806268 255 80 80
0.16244012 0.85072827 0.79645586 255 80 80
0.16243194 0.85026479 0.79484904 255 80 80
0.16242376 0.84980136 0.79324222 255 80 80
0.16241558 0.84933788 0.79163545 255 80 80
0.1624074 0.84887445 0.79002863 255 80 80
0.16239923 0.84841096 0.78842181 255 80 80
0.1628028 0.84985393 0.78630114 255 80 80
0.1627946 0.84938943 0.78469074 255 80 80
0.16319813 0.85082924 0.78255922 255 80 80
0.16318992 0.85036373 0.78094518 255 80 80
0.16318169 0.84989822 0.77933121 255 80 80
0.16317348 0.84943265 0.77771723 255 80 80
0.16316527 0.84896713 0.77610326 255 80 80
0.16315705 0.84850162 0.77448922 255 80 80
0.16314884 0.84803605 0.77287525 255 80 80
0.16560182 0.85848135 0.76634812 255 80 80
0.16620246 0.8603788 0.76224148 255 80 80
0.1661941 0.85990548 0.76060051 255 80 80
