ply
format ascii 1.0
comment PCL generated
element vertex 1109
property float x
property float y
property float z
property uchar red
property uchar green
property uchar blue
element camera 0
property float view_px
property float view_py
property float view_pz
property float x_axisx
property float x_axisy
property float x_axisz
property float y_axisx
property float y_axisy
property float y_axisz
property float z_axisx
property float z_axisy
property float z_axisz
property float focal
property float scalex
property float scaley
property float centerx
property float centery
property int viewportx
property int viewporty
property float k1
property float k2
end_header
0.38934726 0.56924033 0.72669083 255 80 80
0.37475663 0.54943287 0.73293984 255 80 80
0.37484232 0.54950303 0.73158252 255 80 80
0.37492797 0.54957312 0.73022521 255 80 80
0.37501365 0.54964322 0.72886789 255 80 80
0.37448722 0.54888463 0.72783685 255 80 80
0.49469182 0.71321976 0.79423481 255 80 80
0.49480185 0.71330982 0.79249156 255 80 80
0.49672607 0.71586084 0.79018915 255 80 80
0.49804607 0.71759194 0.78806382 255 80 80
0.4981567 0.71768248 0.78631127 255 80 80
0.49826732 0.71777302 0.78455871 255 80 80
0.50019354 0.72032565 0.7822246 255 80 80
0.50030452 0.72041649 0.78046644 255 80 80
0.50041544 0.72050726 0.77870828 255 80 80
0.50052643 0.7205981 0.77695018 255 80 80
0.50063741 0.72068894 0.77519202 255 80 80
0.50256568 0.72324324 0.77282435 255 80 80
0.50267702 0.72333437 0.77106059 255 80 80
0.50278831 0.72342545 0.76929688 255 80 80
0.50411195 0.72515953 0.76711559 255 80 80
0.50422347 0.72525084 0.76534814 255 80 80
0.50615418 0.7278071 0.76294315 255 80 80
0.50626612 0.72789866 0.76117009 255 80 80
0.506378 0.72799027 0.75939703 255 80 80
0.50831014 0.73054773 0.75696975 255 80 80
0.50842237 0.73063958 0.75519109 255 80 80
0.50974852 0.73237574 0.75296879 255 80 80
0.51350355 0.73740131 0.74984431 255 80 80
0.51361674 0.73749393 0.74805075 255 80 80
0.51676649 0.74169874 0.74512017 255 80 80
0.51688027 0.74179184 0.74331725 255 80 80
0.51881677 0.74435288 0.74082088 255 80 80
0.52075392 0.74691445 0.7383135 255 80 80
0.52086842 0.74700814 0.73649937 255 80 80
0.5191592 0.74463314 0.73539543 255 80 80
0.51562524 0.73978847 0.73501855 255 80 80
0.51573867 0.73988128 0.73322123 255 80 80
0.49699607 0.71445495 0.73893583 255 80 80
0.49223885 0.7079584 0.73914981 255 80 80
0.49113074 0.70640069 0.73791736 255 80 80
0.49123934 0.70648956 0.73619646 255 80 80
0.48343441 0.69587189 0.73772275 255 80 80
0.48354152 0.69595951 0.73602605 255 80 80
0.47634098 0.68616182 0.73737156 255 80 80
0.47522858 0.68460053 0.73620802 255 80 80
0.47533396 0.68468684 0.73453748 255 80 80
0.47422078 0.68312496 0.73338521 255 80 80
0.47249767 0.68073857 0.73250127 255 80 80
0.46467832 0.67010903 0.73425686 255 80 80
0.46478167 0.67019355 0.73261994 255 80 80
0.46183601 0.66615587 0.73231572 255 80 80
0.46193871 0.66623998 0.7306881 255 80 80
0.45960137 0.66302544 0.73014158 255 80 80
0.44506022 0.64331532 0.73505306 255 80 80
0.4427186 0.64009738 0.73457372 255 80 80
0.44037607 0.63687861 0.73410916 255 80 80
0.4404746 0.6369592 0.73254871 255 80 80
0.44057307 0.63703984 0.73098814 255 80 80
0.43456426 0.62886822 0.73224235 255 80 80
0.42610967 0.61739337 0.73466718 255 80 80
0.42498341 0.61582083 0.73372185 255 80 80
0.42141235 0.61094588 0.73393226 255 80 80
0.42028466 0.6093722 0.73300922 255 80 80
0.42037916 0.60944951 0.73151213 255 80 80
0.41986221 0.60870105 0.73030758 255 80 80
0.41873351 0.60712653 0.72940135 255 80 80
0.41638094 0.60389954 0.7290954 255 80 80
0.41647461 0.60397619 0.7276113 255 80 80
0.4031063 0.58587676 0.73272979 255 80 80
0.40136135 0.58347249 0.73219264 255 80 80
0.39900351 0.5802412 0.73197061 255 80 80
0.39725694 0.57783568 0.73145771 255 80 80
0.39612213 0.5762561 0.73064846 255 80 80
0.39559925 0.57550281 0.72953719 255 80 80
0.39201313 0.57061553 0.72998619 255 80 80
0.39148924 0.56986135 0.72889173 255 80 80
0.39035228 0.56828004 0.72811604 255 80 80
0.39044076 0.56835246 0.72671396 255 80 80
0.37520218 0.54774618 0.73328096 255 80 80
0.37528774 0.54781616 0.73192555 255 80 80
0.37537327 0.54788619 0.73057008 255 80 80
0.37545884 0.54795623 0.72921467 255 80 80
0.37554437 0.5480262 0.72785926 255 80 80
0.50112092 0.71884894 0.78928626 255 80 80
0.50123185 0.71893978 0.7875281 255 80 80
0.50134283 0.71903062 0.78576994 255 80 80
0.50145382 0.7191214 0.78401184 255 80 80
0.50338471 0.72167075 0.78167224 255 80 80
0.50349599 0.72176182 0.77990842 255 80 80
0.50360733 0.72185296 0.77814472 255 80 80
0.50371861 0.72194409 0.77638096 255 80 80
0.50504422 0.72367501 0.77421468 255 80 80
0.5051558 0.72376633 0.77244723 255 80 80
0.50526732 0.72385758 0.77067971 255 80 80
0.5053789 0.7239489 0.76891232 255 80 80
0.50731325 0.72650105 0.76651859 255 80 80
0.50924832 0.7290538 0.76411372 255 80 80
0.50936055 0.72914571 0.76233506 255 80 80
0.50947285 0.72923756 0.7605564 255 80 80
0.5108012 0.73097074 0.75834537 255 80 80
0.51091367 0.73106283 0.75656295 255 80 80
0.51285112 0.73361748 0.75412083 255 80 80
0.51296395 0.73370987 0.75233287 255 80 80
0.51611948 0.73790753 0.74942666 255 80 80
0.51805884 0.74046385 0.74695283 255 80 80
0.51817262 0.74055696 0.74514991 255 80 80
0.52011311 0.74311417 0.74265933 255 80 80
0.52205431 0.74567187 0.74015749 255 80 80
0.52216882 0.74576563 0.73834348 255 80 80
0.52228332 0.74585932 0.73652935 255 80 80
0.52239782 0.74595302 0.73471522 255 80 80
0.52068383 0.7435813 0.73361683 255 80 80
0.5110445 0.73052388 0.73565519 255 80 80
0.51115674 0.73061574 0.73387647 255 80 80
0.49358395 0.70686626 0.7391783 255 80 80
0.49247286 0.70531088 0.73794574 255 80 80
0.49258152 0.70539975 0.73622489 255 80 80
0.48475769 0.69479746 0.73775077 255 80 80
0.48486474 0.69488508 0.73605406 255 80 80
0.4776468 0.68510151 0.73739922 255 80 80
0.47653148 0.68354261 0.73623562 255 80 80
0.47663686 0.68362892 0.73456514 255 80 80
0.4767423 0.68371522 0.73289454 255 80 80
0.4737933 0.67968655 0.73252875 255 80 80
0.46595505 0.66907233 0.73428392 255 80 80
0.46422496 0.66668737 0.73344094 255 80 80
0.46310547 0.66512513 0.7323426 255 80 80
0.46320817 0.66520917 0.73071498 255 80 80
0.46086505 0.6619994 0.73016834 255 80 80
0.44506577 0.64067048 0.7356233 255 80 80
0.44271806 0.63745707 0.73514754 255 80 80
0.44036952 0.63424283 0.73468673 255 80 80
0.43679604 0.62938011 0.73479617 255 80 80
0.43566951 0.62781209 0.73380971 255 80 80
0.43576685 0.62789178 0.7322678 255 80 80
0.42974105 0.61972994 0.73355901 255 80 80
0.42616269 0.61486322 0.73374683 255 80 80
0.42258292 0.60999542 0.73395699 255 80 80
0.42145234 0.60842407 0.7330339 255 80 80
0.42154682 0.60850137 0.73153681 255 80 80
0.42102841 0.60775411 0.73033226 255 80 80
0.41867074 0.60453242 0.73001498 255 80 80
0.41631219 0.60131013 0.72971261 255 80 80
0.41640565 0.60138661 0.72823226 255 80 80
0.40423182 0.5849629 0.73275363 255 80 80
0.40125549 0.58091193 0.73282033 255 80 80
0.4001188 0.57933557 0.73199421 255 80 80
0.39836791 0.57693362 0.73148125 255 80 80
0.39723015 0.57535636 0.73067194 255 80 80
0.39731982 0.5754298 0.72925121 255 80 80
0.39004067 0.56559616 0.73156583 255 80 80
0.38951474 0.5648427 0.73048055 255 80 80
0.38960287 0.56491482 0.72908413 255 80 80
0.39153427 0.56746453 0.72673714 255 80 80
0.37634489 0.54695779 0.7319479 255 80 80
0.37643042 0.54702783 0.73059249 255 80 80
0.37528622 0.54544538 0.7298857 255 80 80
0.37537152 0.54551518 0.72853398 255 80 80
0.50249213 0.71773553 0.78931528 255 80 80
0.50260311 0.71782637 0.78755713 255 80 80
0.5027141 0.71791714 0.78579897 255 80 80
0.50464898 0.72046268 0.78346509 255 80 80
0.5059765 0.7221905 0.78131378 255 80 80
0.50608808 0.72228175 0.77954626 255 80 80
0.5061996 0.72237307 0.77777886 255 80 80
0.50631118 0.72246438 0.77601135 255 80 80
0.51007426 0.72746801 0.77303642 255 80 80
0.51140386 0.7291975 0.77085155 255 80 80
0.51151633 0.72928953 0.76906919 255 80 80
0.51162887 0.72938162 0.76728678 255 80 80
0.51356852 0.73193103 0.76487827 255 80 80
0.51368135 0.73202342 0.76309025 255 80 80
0.51379418 0.73211575 0.76130235 255 80 80
0.51390707 0.73220813 0.75951433 255 80 80
0.51584846 0.73475897 0.75707793 255 80 80
0.51596171 0.73485166 0.75528431 255 80 80
0.5160749 0.73494428 0.75349069 255 80 80
0.51740783 0.73667645 0.75125366 255 80 80
0.51935118 0.73922896 0.7487855 255 80 80
0.51946503 0.73932207 0.74698257 255 80 80
0.52140951 0.74187547 0.74449766 255 80 80
0.52335471 0.74442935 0.74200153 255 80 80
0.52346915 0.74452305 0.74018747 255 80 80
0.52358365 0.74461675 0.7383734 255 80 80
0.52369815 0.74471045 0.73655927 255 80 80
0.52381265 0.7448042 0.7347452 255 80 80
0.51354128 0.73094684 0.73698616 255 80 80
0.51059854 0.72693521 0.73640573 255 80 80
0.51071048 0.72702676 0.73463267 255 80 80
0.51082236 0.72711837 0.73285961 255 80 80
0.51093429 0.72720999 0.73108655 255 80 80
0.51288074 0.72976494 0.72856992 255 80 80
0.51605117 0.73396295 0.72554266 255 80 80
0.48190573 0.68806136 0.73784316 255 80 80
0.47895262 0.68404126 0.73742688 255 80 80
0.4790583 0.68412775 0.73575258 255 80 80
0.47793975 0.68257099 0.73459268 255 80 80
0.4780452 0.68265724 0.7329222 255 80 80
0.47386423 0.67699093 0.73307794 255 80 80
0.46723178 0.66803569 0.73431093 255 80 80
0.46549734 0.66565418 0.73346788 255 80 80
0.46437493 0.66409433 0.73236948 255 80 80
0.46325198 0.662534 0.7312786 255 80 80
0.44619241 0.63959396 0.73722094 255 80 80
0.4462916 0.63967514 0.73564923 255 80 80
0.44393811 0.63646644 0.73517334 255 80 80
0.44158372 0.63325691 0.73471236 255 80 80
0.43800148 0.62840128 0.73482168 255 80 80
0.43687204 0.62683564 0.73383516 255 80 80
0.43696937 0.62691528 0.73229325 255 80 80
0.43092909 0.61876529 0.73358417 255 80 80
0.42611429 0.61225963 0.73434204 255 80 80
0.4237535 0.60904491 0.73398179 255 80 80
0.42384824 0.60912246 0.73248088 255 80 80
0.4227145 0.60755324 0.73156154 255 80 80
0.42219463 0.60680717 0.73035693 255 80 80
0.41860226 0.60194319 0.73062849 255 80 80
0.41746679 0.60037261 0.72973704 255 80 80
0.41756022 0.60044909 0.7282567 255 80 80
0.41642398 0.59887791 0.72737646 255 80 80
0.40114388 0.57835609 0.73344779 255 80 80
0.40061903 0.57760596 0.73232162 255 80 80
0.39947885 0.57603151 0.7315048 255 80 80
0.39956877 0.57610512 0.73008037 255 80 80
0.39965868 0.57617867 0.72865593 255 80 80
0.39113128 0.56471062 0.73158884 255 80 80
0.39060387 0.56395835 0.73050368 255 80 80
0.39069203 0.56403047 0.72910726 255 80 80
0.39262778 0.56657666 0.72676027 255 80 80
0.37740204 0.54609942 0.73197031 255 80 80
0.37625512 0.54451948 0.7312597 255 80 80
0.37510774 0.54293919 0.73055661 255 80 80
0.37087759 0.53723258 0.73149168 255 80 80
0.50397438 0.71671295 0.78758615 255 80 80
0.5040853 0.71680373 0.78582799 255 80 80
0.5060246 0.71934569 0.78349423 255 80 80
0.50735503 0.72107112 0.78134298 255 80 80
0.50929564 0.72361416 0.77898866 255 80 80
0.50940752 0.72370577 0.7772156 255 80 80
0.5113492 0.72624969 0.77484441 255 80 80
0.51268148 0.72797662 0.77266335 255 80 80
0.51462448 0.73052168 0.77027178 255 80 80
0.51473731 0.73061401 0.76848376 255 80 80
0.51668131 0.7331599 0.76607537 255 80 80
0.51679456 0.73325253 0.76428175 255 80 80
0.51690775 0.73334521 0.76248825 255 80 80
0.51702094 0.73343784 0.76069462 255 80 80
0.51713413 0.73353046 0.75890106 255 80 80
0.51846933 0.73525971 0.75667524 255 80 80
0.51858276 0.73535258 0.75487798 255 80 80
0.51869619 0.73544538 0.75308067 255 80 80
0.52064353 0.73799407 0.75061816 255 80 80
0.52259171 0.74054331 0.74814451 255 80 80
0.52270585 0.74063671 0.74633598 255 80 80
0.52465504 0.74318677 0.74384558 255 80 80
0.52599317 0.74491847 0.74157315 255 80 80
0.52610791 0.7450124 0.73975533 255 80 80
0.52622259 0.74510628 0.73793757 255 80 80
0.52511305 0.74356163 0.73658919 255 80 80
0.52339071 0.74119723 0.73548508 255 80 80
0.51370668 0.72817916 0.73749256 255 80 80
0.51198143 0.72581232 0.73643506 255 80 80
0.51209331 0.72590393 0.73466194 255 80 80
0.51220524 0.72599548 0.73288894 255 80 80
0.50925285 0.72198784 0.73234558 255 80 80
0.50936413 0.72207898 0.73058182 255 80 80
0.50947547 0.72217005 0.72881806 255 80 80
0.48321882 0.68699515 0.73787099 255 80 80
0.48025844 0.68298095 0.73745453 255 80 80
0.48036411 0.68306744 0.73578024 255 80 80
0.48046973 0.68315393 0.734106 255 80 80
0.47934809 0.68159932 0.73294973 255 80 80
0.47515693 0.67594129 0.7331053 255 80 80
0.46973631 0.66864043 0.73381245 255 80 80
0.46676973 0.66462106 0.73349482 255 80 80
0.46564439 0.66306359 0.73239636 255 80 80
0.46451852 0.66150558 0.73130536 255 80 80
0.44741818 0.63859862 0.73724687 255 80 80
0.44751742 0.6386798 0.73567522 255 80 80
0.44515809 0.63547581 0.73519921 255 80 80
0.44279793 0.63227099 0.73473811 255 80 80
0.44289616 0.6323514 0.7331813 255 80 80
0.44299439 0.63243186 0.73162448 255 80 80
0.43817195 0.62593883 0.73231876 255 80 80
0.42719549 0.6112265 0.73587525 255 80 80
0.42729068 0.6113044 0.73436695 255 80 80
0.42492408 0.60809445 0.73400652 255 80 80
0.42378765 0.60652781 0.73308337 255 80 80
0.42326647 0.60578299 0.73187697 255 80 80
0.42212927 0.60421574 0.73096681 255 80 80
0.41975972 0.60100335 0.73065299 255 80 80
0.41862136 0.59943515 0.72976148 255 80 80
0.41748244 0.59786648 0.72887743 255 80 80
0.41757563 0.59794277 0.72740078 255 80 80
0.40225917 0.57745051 0.73347145 255 80 80
0.40049991 0.5750559 0.73295271 255 80 80
0.39935657 0.57348359 0.73213953 255 80 80
0.39944625 0.57355696 0.73071885 255 80 80
0.39953592 0.57363033 0.72929811 255 80 80
0.39777464 0.57123405 0.72881103 255 80 80
0.39786395 0.57130712 0.72739595 255 80 80
0.39178115 0.56314611 0.72913027 255 80 80
0.37828809 0.54510099 0.73470354 255 80 80
0.37837362 0.54517102 0.73334813 255 80 80
0.37845919 0.545241 0.73199272 255 80 80
0.37607399 0.54201585 0.7319268 255 80 80
0.37554127 0.54126161 0.73090315 255 80 80
0.51522905 0.72874284 0.78281713 255 80 80
0.51534188 0.72883517 0.78102916 255 80 80
0.51545471 0.72892755 0.7792412 255 80 80
0.51373416 0.72657168 0.77803993 255 80 80
0.51384664 0.72666371 0.77625757 255 80 80
0.51579326 0.7292046 0.77387726 255 80 80
0.5159061 0.72929698 0.77208924 255 80 80
0.5178538 0.7318387 0.76969218 255 80 80
0.51796699 0.73193139 0.76789856 255 80 80
0.51930392 0.7336573 0.7656914 255 80 80
0.51941735 0.7337501 0.76389414 255 80 80
0.51953077 0.73384297 0.76209682 255 80 80
0.5196442 0.73393583 0.7602995 255 80 80
0.51975763 0.73402864 0.75850224 255 80 80
0.51987112 0.7341215 0.75670493 255 80 80
0.52182209 0.73666602 0.75425375 255 80 80
0.52193594 0.73675919 0.75245082 255 80 80
0.52388805 0.7393046 0.74998289 255 80 80
0.52584094 0.74185055 0.74750376 255 80 80
0.52595544 0.74194425 0.74568963 255 80 80
0.52606994 0.74203795 0.7438755 255 80 80
0.52741092 0.74376726 0.74160314 255 80 80
0.52752566 0.7438612 0.73978531 255 80 80
0.52641338 0.74231905 0.7384333 255 80 80
0.52468705 0.73995852 0.7373234 255 80 80
0.51989144 0.73350644 0.7374078 255 80 80
0.51509392 0.72705275 0.73752195 255 80 80
0.51152241 0.72223437 0.73718524 255 80 80
0.51163399 0.72232562 0.73541772 255 80 80
0.51051712 0.72077978 0.73413843 255 80 80
0.50079948 0.70777214 0.73630953 255 80 80
0.50090891 0.70786172 0.73457557 255 80 80
0.50286204 0.71040791 0.73209274 255 80 80
0.48453191 0.68592894 0.73789883 255 80 80
0.4834086 0.68437779 0.73672199 255 80 80
0.48166987 0.68200713 0.7358079 255 80 80
0.48054555 0.68045509 0.73464787 255 80 80
0.48065099 0.6805414 0.73297733 255 80 80
0.47768018 0.67653042 0.73261106 255 80 80
0.47224668 0.66924047 0.73331416 255 80 80
0.46804205 0.66358793 0.73352176 255 80 80
0.46814504 0.66367221 0.73189038 255 80 80
0.46701655 0.66211689 0.73079562 255 80 80
0.44864401 0.63760322 0.73727286 255 80 80
0.44874325 0.63768446 0.73570114 255 80 80
0.44761029 0.63612545 0.73467726 255 80 80
0.44524452 0.63292551 0.73421228 255 80 80
0.44534299 0.63300616 0.73265177 255 80 80
0.44667432 0.6347276 0.73053223 255 80 80
0.44677302 0.63480842 0.72896802 255 80 80
0.4308385 0.61355364 0.73476732 255 80 80
0.42846707 0.61034918 0.73439187 255 80 80
0.42609465 0.60714394 0.73403132 255 80 80
0.42495534 0.60557967 0.7331081 255 80 80
0.42443267 0.60483605 0.73190165 255 80 80
0.42329258 0.60327119 0.73099142 255 80 80
0.4196825 0.59842116 0.73126626 255 80 80
0.41854092 0.59685504 0.73037845 255 80 80
0.41739893 0.59528857 0.72949809 255 80 80
0.41749188 0.59536469 0.7280252 255 80 80
0.41758484 0.59544075 0.72655231 255 80 80
0.40161085 0.57415378 0.7329762 255 80 80
0.40046462 0.57258385 0.73216295 255 80 80
0.4005543 0.57265723 0.73074228 255 80 80
0.40064397 0.57273066 0.72932154 255 80 80
0.39887834 0.57033789 0.72883439 255 80 80
0.39896762 0.57041097 0.72741932 255 80 80
0.39287031 0.56226176 0.72915339 255 80 80
0.37943077 0.5443126 0.73337048 255 80 80
0.37951633 0.54438263 0.73201507 255 80 80
0.37712532 0.54116219 0.73194909 255 80 80
0.37659118 0.54040909 0.73092532 255 80 80
0.5281409 0.74299371 0.78106081 255 80 80
0.52152139 0.73412734 0.78132701 255 80 80
0.52163517 0.73422045 0.77952409 255 80 80
0.52174896 0.73431361 0.77772117 255 80 80
0.52002507 0.73196203 0.77650499 255 80 80
0.5201385 0.73205483 0.77470767 255 80 80
0.52209038 0.73459297 0.77231246 255 80 80
0.52220416 0.73468614 0.7705096 255 80 80
0.52231795 0.73477924 0.76870668 255 80 80
0.52059221 0.73242623 0.7675184 255 80 80
0.5207057 0.73251909 0.76572108 255 80 80
0.52081913 0.73261189 0.76392382 255 80 80
0.52093256 0.73270476 0.76212651 255 80 80
0.52104598 0.73279762 0.76032919 255 80 80
0.52115941 0.73289043 0.75853193 255 80 80
0.52311444 0.73543113 0.75608641 255 80 80
0.52322829 0.7355243 0.75428349 255 80 80
0.52518445 0.7380659 0.75182116 255 80 80
0.52714127 0.74060798 0.74934775 255 80 80
0.52725577 0.74070168 0.74753368 255 80 80
0.52859926 0.7424283 0.74526882 255 80 80
0.52871394 0.74252218 0.743451 255 80 80
0.52882868 0.74261606 0.74163318 255 80 80
0.53078789 0.7451601 0.73912245 255 80 80
0.52782828 0.74117023 0.73846328 255 80 80
0.5260976 0.73881322 0.73735327 255 80 80
0.5212903 0.73237056 0.73743737 255 80 80
0.5177117 0.72756052 0.73707438 255 80 80
0.51167005 0.71948057 0.7376951 255 80 80
0.51178139 0.71957171 0.73593134 255 80 80
0.51189274 0.71966279 0.73416758 255 80 80
0.49907306 0.70258665 0.73756766 255 80 80
0.4991819 0.70267576 0.73584306 255 80 80
0.49805871 0.70112944 0.73461771 255 80 80
0.49323842 0.69467616 0.7349087 255 80 80
0.48595122 0.68494976 0.73624301 255 80 80
0.48297569 0.68094689 0.73583555 255 80 80
0.48184845 0.67939717 0.73467541 255 80 80
0.48072073 0.67784715 0.73352277 255 80 80
0.47774234 0.67384195 0.73316008 255 80 80
0.47352919 0.66819912 0.73334134 255 80 80
0.47116527 0.66501021 0.73275506 255 80 80
0.46941742 0.66263908 0.73191732 255 80 80
0.46828601 0.66108608 0.73082244 255 80 80
0.44986984 0.63660789 0.73729885 255 80 80
0.44996908 0.63668907 0.73572707 255 80 80
0.4488332 0.63513243 0.73470312 255 80 80
0.44769683 0.63357538 0.73368657 255 80 80
0.4477956 0.63365614 0.7321223 255 80 80
0.4478943 0.63373697 0.73055804 255 80 80
0.44799301 0.63381779 0.72899383 255 80 80
0.43202069 0.61259371 0.73479235 255 80 80
0.42964348 0.60939395 0.73441672 255 80 80
0.4272652 0.60619348 0.73405612 255 80 80
0.42735994 0.60627103 0.73255527 255 80 80
0.42559889 0.60388911 0.73192632 255 80 80
0.42198104 0.59904695 0.73218608 255 80 80
0.41836175 0.59420365 0.73246825 255 80 80
0.41845471 0.59427971 0.7309953 255 80 80
0.41854769 0.59435582 0.72952241 255 80 80
0.41864064 0.59443188 0.72804952 255 80 80
0.4187336 0.59450799 0.72657663 255 80 80
0.40272182 0.57325172 0.7329998 255 80 80
0.40157267 0.57168412 0.73218644 255 80 80
0.40166235 0.57175756 0.73076576 255 80 80
0.40175202 0.57183093 0.72934502 255 80 80
0.40308142 0.57354605 0.72730207 255 80 80
0.40007132 0.56951481 0.72744274 255 80 80
0.39395943 0.56137735 0.7291764 255 80 80
0.38048795 0.54345423 0.73339283 255 80 80
0.38057348 0.54352427 0.73203743 255 80 80
0.37941787 0.54195142 0.7313267 255 80 80
0.37764105 0.53955662 0.73094755 255 80 80
0.52772236 0.73939908 0.78165513 255 80 80
0.52660972 0.7378661 0.78021717 255 80 80
0.52672422 0.7379598 0.77840304 255 80 80
0.52683872 0.7380535 0.77658898 255 80 80
0.52695322 0.7381472 0.77477491 255 80 80
0.52706772 0.73824096 0.77296078 255 80 80
0.52718222 0.73833466 0.77114671 255 80 80
0.52729672 0.73842835 0.76933265 255 80 80
0.52556765 0.73607981 0.7681275 255 80 80
0.52568179 0.73617321 0.76631904 255 80 80
0.52395165 0.73382378 0.7651307 255 80 80
0.52406543 0.73391688 0.76332778 255 80 80
0.52417922 0.73400998 0.76152486 255 80 80
0.52613837 0.73654687 0.75908506 255 80 80
0.52625251 0.73664033 0.75727654 255 80 80
0.52636665 0.73673373 0.75546801 255 80 80
0.52648079 0.73682714 0.75365961 255 80 80
0.52659494 0.7369206 0.75185108 255 80 80
0.52855617 0.73945916 0.74937773 255 80 80
0.52867067 0.73955286 0.7475636 255 80 80
0.53001702 0.7412771 0.74529886 255 80 80
0.53013176 0.74137098 0.74348104 255 80 80
0.5302465 0.74146485 0.74166322 255 80 80
0.53220999 0.74400538 0.73915255 255 80 80
0.53047591 0.74165267 0.73802757 255 80 80
0.52935761 0.74011511 0.73667908 255 80 80
0.52947211 0.7402088 0.73486501 255 80 80
0.52958661 0.7403025 0.73305094 255 80 80
0.51304567 0.71836364 0.73772418 255 80 80
0.51315701 0.71845472 0.73596048 255 80 80
0.51326835 0.71854585 0.73419666 255 80 80
0.49918368 0.69986182 0.73808783 255 80 80
0.49929228 0.69995075 0.73636699 255 80 80
0.49940088 0.70003963 0.73464614 255 80 80
0.49765679 0.69767874 0.73367965 255 80 80
0.48911741 0.6863336 0.73551083 255 80 80
0.48428151 0.67988658 0.73586315 255 80 80
0.48315135 0.67833924 0.73470306 255 80 80
0.48202071 0.67679155 0.73355031 255 80 80
0.47779879 0.67115813 0.73370898 255 80 80
0.4735752 0.66552335 0.73389375 255 80 80
0.47058681 0.66152167 0.73357564 255 80 80
0.47068974 0.66160595 0.73194426 255 80 80
0.46955547 0.66005534 0.73084939 255 80 80
0.45109573 0.63561255 0.73732477 255 80 80
0.45119491 0.63569373 0.73575306 255 80 80
0.45129409 0.63577491 0.73418134 255 80 80
0.44891688 0.63258475 0.73371243 255 80 80
0.44901559 0.63266551 0.73214817 255 80 80
0.450353 0.63438243 0.73002505 255 80 80
0.45045194 0.63446343 0.72845709 255 80 80
0.43196377 0.60999727 0.73538375 255 80 80
0.4320592 0.61007541 0.7338717 255 80 80
0.42967537 0.60687983 0.7335071 255 80 80
0.42853051 0.60532051 0.73258001 255 80 80
0.42676508 0.60294217 0.731951 255 80 80
0.42313853 0.5981071 0.73221058 255 80 80
0.41951051 0.5932709 0.73249257 255 80 80
0.41960347 0.59334695 0.73101962 255 80 80
0.41969645 0.59342307 0.72954673 255 80 80
0.41916877 0.59268004 0.72837377 255 80 80
0.4192616 0.59275603 0.72690272 255 80 80
0.41997531 0.59365129 0.72512805 255 80 80
0.39833382 0.56504869 0.7343486 255 80 80
0.39842266 0.56512141 0.73294097 255 80 80
0.3985115 0.56519413 0.73153335 255 80 80
0.39797899 0.56444716 0.73043674 255 80 80
0.39806771 0.56451976 0.72903097 255 80 80
0.39815643 0.56459236 0.72762519 255 80 80
0.3815451 0.54259586 0.73341525 255 80 80
0.38163063 0.54266584 0.73205984 255 80 80
0.38047212 0.54109544 0.73134899 255 80 80
0.37744662 0.53706348 0.73161811 255 80 80
0.53087008 0.74059004 0.78294444 255 80 80
0.52914017 0.73824787 0.78168511 255 80 80
0.52925485 0.73834175 0.77986729 255 80 80
0.52936959 0.73843563 0.77804947 255 80 80
0.52948433 0.73852956 0.77623165 255 80 80
0.52959907 0.73862344 0.77441382 255 80 80
0.52971381 0.73871738 0.77259606 255 80 80
0.52859706 0.73718578 0.7711767 255 80 80
0.52871156 0.73727947 0.76936257 255 80 80
0.52882606 0.73737323 0.76754844 255 80 80
0.52894056 0.73746693 0.76573443 255 80 80
0.52720642 0.73512137 0.76454037 255 80 80
0.52732056 0.73521477 0.76273191 255 80 80
0.52743471 0.73530817 0.76092339 255 80 80
0.52939856 0.73784173 0.75847811 255 80 80
0.52766299 0.73549503 0.75730646 255 80 80
0.52777714 0.73558843 0.75549793 255 80 80
0.529742 0.73812288 0.75303578 255 80 80
0.5298565 0.73821658 0.75122178 255 80 80
0.5312053 0.73993808 0.74896443 255 80 80
0.53132004 0.74003196 0.74714667 255 80 80
0.53143477 0.74012589 0.7453289 255 80 80
0.53340197 0.74266225 0.74282944 255 80 80
0.53351706 0.74275643 0.74100608 255 80 80
0.53548533 0.74529368 0.73848987 255 80 80
0.5337472 0.74294484 0.73735923 255 80 80
0.53200847 0.7405954 0.73623979 255 80 80
0.53088701 0.73905998 0.73489499 255 80 80
0.53100151 0.73915368 0.73308086 255 80 80
0.51442128 0.71724665 0.73775333 255 80 80
0.50772983 0.70837349 0.73865271 255 80 80
0.50474703 0.70438838 0.73812932 255 80 80
0.50052577 0.69877201 0.73811626 255 80 80
0.50063443 0.69886094 0.73639536 255 80 80
0.50074303 0.69894981 0.73467451 255 80 80
0.49899456 0.69659251 0.7337079 255 80 80
0.49043486 0.68526387 0.73553872 255 80 80
0.48558733 0.67882627 0.73589081 255 80 80
0.48445424 0.67728132 0.7347306 255 80 80
0.48332068 0.67573601 0.73357785 255 80 80
0.47784939 0.66847903 0.73425782 255 80 80
0.47361538 0.66285229 0.73444605 255 80 80
0.47185913 0.66048855 0.73360258 255 80 80
0.47072217 0.65894049 0.73250389 255 80 80
0.47082487 0.65902454 0.73087621 255 80 80
0.4523215 0.63461721 0.7373507 255 80 80
0.45242074 0.63469839 0.73577899 255 80 80
0.45251992 0.63477957 0.73420727 255 80 80
0.45013687 0.63159412 0.73373824 255 80 80
0.45023558 0.63167489 0.73217398 255 80 80
0.45033434 0.63175571 0.73060971 255 80 80
0.45167491 0.63347048 0.72848296 255 80 80
0.43314305 0.60903972 0.73540866 255 80 80
0.43199626 0.60748357 0.73446655 255 80 80
0.43209144 0.60756147 0.73295832 255 80 80
0.43094382 0.60600471 0.73202735 255 80 80
0.42979583 0.6044476 0.73110396 255 80 80
0.42989054 0.60452509 0.72960305 255 80 80
0.42003754 0.59152049 0.73281115 255 80 80
0.42013037 0.59159642 0.73134017 255 80 80
0.42022321 0.59167242 0.72986913 255 80 80
0.42031607 0.59174842 0.72839808 255 80 80
0.4204089 0.59182441 0.72692704 255 80 80
0.40307674 0.56899321 0.73395765 255 80 80
0.39943168 0.56415725 0.73437178 255 80 80
0.39952052 0.56422997 0.73296416 255 80 80
0.39960936 0.56430268 0.73155653 255 80 80
0.39907542 0.56355685 0.73045993 255 80 80
0.39916414 0.56362951 0.72905421 255 80 80
0.39925286 0.56370211 0.72764838 255 80 80
0.39934158 0.5637747 0.72624266 255 80 80
0.38268778 0.54180747 0.73208225 255 80 80
0.38152635 0.54023939 0.73137128 255 80 80
0.53229225 0.73943532 0.78297454 255 80 80
0.53240734 0.73952949 0.78115112 255 80 80
0.53252238 0.73962367 0.77932769 255 80 80
0.53263748 0.7397179 0.77750432 255 80 80
0.53275257 0.73981208 0.7756809 255 80 80
0.53101683 0.73747224 0.77444386 255 80 80
0.53113157 0.73756617 0.77262604 255 80 80
0.5312463 0.73766005 0.77080822 255 80 80
0.53136104 0.73775393 0.7689904 255 80 80
0.53147578 0.73784786 0.76717263 255 80 80
0.53035539 0.73631805 0.76576436 255 80 80
0.53046989 0.73641181 0.76395029 255 80 80
0.53058439 0.73650551 0.76213622 255 80 80
0.5306989 0.73659921 0.76032215 255 80 80
0.5308134 0.73669291 0.75850809 255 80 80
0.53216416 0.73841125 0.75626576 255 80 80
0.5322789 0.73850518 0.75444794 255 80 80
0.53239363 0.73859906 0.75263011 255 80 80
0.53250837 0.73869294 0.75081229 255 80 80
0.53262311 0.73878688 0.74899447 255 80 80
0.53459394 0.74131912 0.74650639 255 80 80
0.53470904 0.7414133 0.74468297 255 80 80
0.536681 0.74394643 0.74217808 255 80 80
0.53679639 0.74404091 0.74034911 255 80 80
0.53876942 0.74657494 0.73782742 255 80 80
0.53888524 0.74666971 0.73599285 255 80 80
0.53900099 0.74676448 0.73415828 255 80 80
0.5391168 0.74685925 0.73232365 255 80 80
0.53241634 0.7380048 0.7331109 255 80 80
0.50897944 0.70717943 0.74042475 255 80 80
0.50908947 0.70726949 0.7386815 255 80 80
0.5060994 0.70329028 0.73815793 255 80 80
0.5031082 0.69931012 0.73765302 255 80 80
0.50197655 0.69777113 0.73642379 255 80 80
0.50208521 0.69786 0.73470294 255 80 80
0.50219381 0.69794893 0.7329821 255 80 80
0.49919942 0.69396615 0.73252749 255 80 80
0.48689315 0.67776597 0.73591846 255 80 80
0.48575714 0.6762234 0.7347582 255 80 80
0.48275784 0.67223656 0.73438197 255 80 80
0.47603092 0.66336054 0.73558867 255 80 80
0.47489211 0.66181564 0.73447311 255 80 80
0.47188887 0.65782565 0.7341584 255 80 80
0.47199163 0.65790969 0.73253071 255 80 80
0.47085127 0.65636355 0.73143947 255 80 80
0.46660218 0.6507411 0.73170578 255 80 80
0.4548901 0.63533366 0.7352612 255 80 80
0.45374575 0.63378423 0.73423326 255 80 80
0.45260093 0.63223445 0.73321283 255 80 80
0.45145562 0.63068426 0.73219979 255 80 80
0.45155433 0.63076508 0.73063552 255 80 80
0.45165309 0.6308459 0.72907132 255 80 80
0.43307742 0.60645044 0.73599982 255 80 80
0.43192735 0.60489643 0.73506141 255 80 80
0.4320223 0.60497415 0.73355681 255 80 80
0.43087164 0.60341954 0.73262954 255 80 80
0.42972049 0.60186458 0.7317099 255 80 80
0.42794579 0.59949285 0.73108995 255 80 80
0.42118484 0.59058887 0.73283541 255 80 80
0.42127767 0.59066486 0.73136443 255 80 80
0.42137054 0.59074086 0.72989339 255 80 80
0.42021629 0.58918339 0.72902215 255 80 80
0.42030889 0.58925921 0.7275548 255 80 80
0.40418333 0.56809467 0.73398113 255 80 80
0.40427288 0.56816798 0.7325623 255 80 80
0.40186641 0.56497276 0.73237276 255 80 80
0.40195549 0.56504571 0.73096138 255 80 80
0.40204456 0.56511861 0.72955 255 80 80
0.40088493 0.56355667 0.72876447 255 80 80
0.40034926 0.56281185 0.72767162 255 80 80
0.40043801 0.56288445 0.72626591 255 80 80
0.38374493 0.54094911 0.7321046 255 80 80
0.38258061 0.53938335 0.73139364 255 80 80
0.38079068 0.53699917 0.73101425 255 80 80
0.53742129 0.74313867 0.78188795 255 80 80
0.5375371 0.74323344 0.78005344 255 80 80
0.53579873 0.74089855 0.77878827 255 80 80
0.53591418 0.74099302 0.7769593 255 80 80
0.53417474 0.7386573 0.775711 255 80 80
0.53428978 0.73875153 0.77388757 255 80 80
0.53440487 0.73884571 0.77206421 255 80 80
0.53266406 0.73650885 0.77083826 255 80 80
0.5327788 0.73660272 0.76902044 255 80 80
0.53289354 0.73669666 0.76720262 255 80 80
0.53300828 0.73679054 0.76538479 255 80 80
0.53312302 0.73688447 0.76356703 255 80 80
0.53323776 0.73697835 0.76174921 255 80 80
0.53335249 0.73707223 0.75993133 255 80 80
0.53346723 0.73716617 0.75811362 255 80 80
0.53358197 0.73726004 0.75629574 255 80 80
0.53369665 0.73735392 0.75447798 255 80 80
0.53381139 0.73744786 0.75266016 255 80 80
0.53578591 0.73997599 0.75018334 255 80 80
0.53590101 0.74007016 0.74835986 255 80 80
0.53601605 0.74016434 0.74653649 255 80 80
0.53799206 0.74269366 0.74403727 255 80 80
0.53996873 0.74522358 0.7415269 255 80 80
0.54008448 0.74531835 0.73969233 255 80 80
0.54206216 0.74784905 0.73716515 255 80 80
0.54217833 0.74794412 0.73532498 255 80 80
0.54229444 0.74803919 0.7334848 255 80 80
0.54241061 0.74813426 0.73164463 255 80 80
0.54252672 0.74822927 0.7298044 255 80 80
0.50909656 0.70445055 0.7409339 255 80 80
0.50920635 0.70454043 0.73919439 255 80 80
0.50620878 0.70056689 0.7386744 255 80 80
0.5044533 0.69821799 0.73768151 255 80 80
0.50331873 0.69668132 0.73645222 255 80 80
0.50342733 0.69677019 0.73473138 255 80 80
0.50353593 0.69685912 0.73301053 255 80 80
0.5005343 0.69288224 0.73255575 255 80 80
0.49130979 0.68077195 0.73467064 255 80 80
0.4858155 0.67353874 0.73529971 255 80 80
0.48156384 0.66793084 0.73544466 255 80 80
0.47731051 0.66232145 0.73561573 255 80 80
0.47616884 0.66077894 0.73450011 255 80 80
0.47315833 0.65679485 0.73418522 255 80 80
0.47326109 0.65687895 0.73255765 255 80 80
0.47211781 0.65533513 0.73146629 255 80 80
0.46536604 0.64646482 0.7328124 255 80 80
0.45611885 0.63433594 0.73528719 255 80 80
0.45497158 0.6327889 0.73425919 255 80 80
0.45257691 0.62961286 0.73378992 255 80 80
0.45267561 0.62969363 0.73222566 255 80 80
0.45277438 0.62977445 0.73066139 255 80 80
0.45287308 0.62985528 0.72909713 255 80 80
0.4330059 0.60386586 0.73659086 255 80 80
0.43185279 0.602314 0.73565614 255 80 80
0.4319475 0.60239154 0.7341553 255 80 80
0.43204221 0.60246909 0.73265433 255 80 80
0.43088815 0.60091645 0.73173457 255 80 80
0.42785999 0.59691787 0.73169935 255 80 80
0.42295679 0.59047258 0.73256552 255 80 80
0.422425 0.58973324 0.73138869 255 80 80
0.42251784 0.58980924 0.72991765 255 80 80
0.42136067 0.58825415 0.72904634 255 80 80
0.4214533 0.58832997 0.72757906 255 80 80
0.40528992 0.56719613 0.7340045 255 80 80
0.40537947 0.56726944 0.73258567 255 80 80
0.40296718 0.56407899 0.73239607 255 80 80
0.40305626 0.56415188 0.73098469 255 80 80
0.40189394 0.56259251 0.7301954 255 80 80
0.40198278 0.56266522 0.72878772 255 80 80
0.40144569 0.5619216 0.72769487 255 80 80
0.40153441 0.56199419 0.72628909 255 80 80
0.38471654 0.5400207 0.73348236 255 80 80
0.53885216 0.74197686 0.78191823 255 80 80
0.53896797 0.74207163 0.78008372 255 80 80
0.53908372 0.7421664 0.77824908 255 80 80
0.53734064 0.73983473 0.77698952 255 80 80
0.53559685 0.73750257 0.77574116 255 80 80
0.53571194 0.73759675 0.77391773 255 80 80
0.53582704 0.73769093 0.77209431 255 80 80
0.53594208 0.73778516 0.77027088 255 80 80
0.53605717 0.73787934 0.76844752 255 80 80
0.53617227 0.73797351 0.76662409 255 80 80
0.53442603 0.73563933 0.76541483 255 80 80
0.53454077 0.73573327 0.76359707 255 80 80
0.53465551 0.73582715 0.76177925 255 80 80
0.53477025 0.73592103 0.75996137 255 80 80
0.53488499 0.73601496 0.75814366 255 80 80
0.53499973 0.73610884 0.75632578 255 80 80
0.53697789 0.73863286 0.75386024 255 80 80
0.53709292 0.73872703 0.75203687 255 80 80
0.53720802 0.73882121 0.75021344 255 80 80
0.53732312 0.73891544 0.74839002 255 80 80
0.53930306 0.74144089 0.74589652 255 80 80
0.54128379 0.743967 0.74339181 255 80 80
0.54139954 0.74406177 0.74155718 255 80 80
0.54338121 0.74658865 0.73903573 255 80 80
0.54349738 0.74668372 0.73719549 255 80 80
0.54361355 0.74677873 0.73535532 255 80 80
0.54372966 0.7468738 0.73351514 255 80 80
0.54384583 0.74696887 0.73167497 255 80 80
0.54396194 0.74706393 0.72983479 255 80 80
0.54719156 0.75121546 0.72679389 255 80 80
0.50744903 0.69938177 0.74043322 255 80 80
0.5056895 0.69703674 0.7394346 255 80 80
0.50579834 0.69712579 0.73771 255 80 80
0.5046609 0.69559151 0.73648065 255 80 80
0.5047695 0.69568038 0.73475981 255 80 80
0.5048781 0.69576931 0.73303896 255 80 80
0.50623375 0.69748217 0.7308116 255 80 80
0.50634259 0.69757122 0.72908705 255 80 80
0.48711547 0.67248321 0.73532724 255 80 80
0.48285368 0.66688353 0.73547196 255 80 80
0.47859016 0.66128242 0.73564279 255 80 80
0.47744557 0.65974224 0.73452717 255 80 80
0.47567621 0.65738916 0.73368335 255 80 80
0.47453055 0.65584815 0.73258448 255 80 80
0.47338435 0.65430671 0.73149312 255 80 80
0.4666166 0.6454494 0.73283887 255 80 80
0.46296975 0.64065462 0.73286664 255 80 80
0.45619741 0.6317935 0.73428512 255 80 80
0.45379689 0.62862223 0.73381573 255 80 80
0.45389566 0.628703 0.73225147 255 80 80
0.45399436 0.62878382 0.7306872 255 80 80
0.44283822 0.61422312 0.73418397 255 80 80
0.43417934 0.60291302 0.73661566 255 80 80
0.43302336 0.60136354 0.73568088 255 80 80
0.43311808 0.60144109 0.73418003 255 80 80
0.43321279 0.60151863 0.73267913 255 80 80
0.4320558 0.59996831 0.73175931 255 80 80
0.42902038 0.59597564 0.7317239 255 80 80
0.42911428 0.59605247 0.73023605 255 80 80
0.4235723 0.58880168 0.73141301 255 80 80
0.42366514 0.58887768 0.72994196 255 80 80
0.41686705 0.57999551 0.73176885 255 80 80
0.4169586 0.58007044 0.73031831 255 80 80
0.40639651 0.56629765 0.73402798 255 80 80
0.40648606 0.5663709 0.73260915 255 80 80
0.40406796 0.56318516 0.73241937 255 80 80
0.40415704 0.56325805 0.73100799 255 80 80
0.4029918 0.56170106 0.73021865 255 80 80
0.40308064 0.56177378 0.72881097 255 80 80
0.40254208 0.56103128 0.72771806 255 80 80
0.40263084 0.56110394 0.72631228 255 80 80
0.39958143 0.55709982 0.72649878 255 80 80
0.54028302 0.74081504 0.78194851 255 80 80
0.54039884 0.74090981 0.780114 255 80 80
0.54051459 0.74100453 0.77827936 255 80 80
0.53876716 0.73867643 0.77701968 255 80 80
0.53701901 0.73634785 0.77577126 255 80 80
0.53713405 0.73644203 0.77394783 255 80 80
0.53724915 0.7365362 0.77212441 255 80 80
0.53736424 0.73663038 0.77030098 255 80 80
0.53747934 0.73672462 0.76847762 255 80 80
0.53759444 0.73681879 0.76665419 255 80 80
0.53770947 0.73691297 0.76483077 255 80 80
0.53782457 0.73700714 0.7630074 255 80 80
0.53793967 0.73710132 0.76118398 255 80 80
0.53805476 0.73719555 0.75936055 255 80 80
0.53816986 0.73728973 0.75753713 255 80 80
0.5382849 0.7373839 0.75571376 255 80 80
0.53839999 0.73747814 0.75389034 255 80 80
0.54038328 0.73999918 0.7514137 255 80 80
0.54049873 0.74009365 0.74958473 255 80 80
0.54061413 0.74018812 0.74775571 255 80 80
0.54259884 0.74271035 0.74525666 255 80 80
0.54458416 0.74523318 0.74274647 255 80 80
0.54470032 0.74532819 0.7409063 255 80 80
0.54481649 0.74542326 0.73906612 255 80 80
0.54617971 0.74713761 0.73676437 255 80 80
0.54629612 0.74723285 0.73492044 255 80 80
0.54641247 0.7473281 0.73307651 255 80 80
0.54840058 0.74985313 0.73052341 255 80 80
0.54851729 0.74994862 0.72867388 255 80 80
0.54863405 0.75004417 0.7268244 255 80 80
0.50879848 0.69828606 0.74046171 255 80 80
0.5070346 0.69594455 0.73946309 255 80 80
0.50589442 0.69441283 0.73822993 255 80 80
0.50412923 0.69207025 0.73725176 255 80 80
0.50423747 0.69215882 0.73553652 255 80 80
0.50622028 0.6946795 0.73306733 255 80 80
0.50632888 0.69476837 0.73134643 255 80 80
0.50768769 0.69647908 0.72911555 255 80 80
0.48841545 0.67142761 0.73535472 255 80 80
0.48289284 0.66421402 0.73601681 255 80 80
0.47986981 0.66024339 0.73566991 255 80 80
0.4787223 0.65870559 0.73455417 255 80 80
0.47694859 0.65635604 0.73371029 255 80 80
0.47580001 0.6548174 0.73261136 255 80 80
0.47465089 0.65327835 0.73151994 255 80 80
0.47037128 0.64768064 0.73178566 255 80 80
0.46671608 0.64289325 0.73180562 255 80 80
0.46681705 0.64297593 0.73020595 255 80 80
0.45501694 0.6276316 0.73384154 255 80 80
0.4538627 0.62608826 0.73283213 255 80 80
0.45396122 0.62616891 0.73127162 255 80 80
0.44403204 0.61325377 0.73420924 255 80 80
0.43911394 0.60683417 0.7349425 255 80 80
0.43795565 0.60528755 0.73399651 255 80 80
0.43805107 0.60536569 0.7324844 255 80 80
0.43563774 0.6021933 0.73212677 255 80 80
0.43573269 0.60227102 0.73062217 255 80 80
0.43331793 0.59909755 0.7302869 255 80 80
0.42462677 0.58779413 0.73290831 255 80 80
0.42220894 0.58461809 0.73262149 255 80 80
0.41979018 0.58144128 0.73234957 255 80 80
0.41799834 0.57907689 0.73179281 255 80 80
0.4180899 0.57915181 0.73034227 255 80 80
0.41818145 0.57922673 0.72889173 255 80 80
0.40759265 0.56547236 0.73263258 255 80 80
0.40642548 0.56391847 0.73182821 255 80 80
0.40651479 0.56399161 0.73041314 255 80 80
0.4053469 0.56243718 0.72961992 255 80 80
0.4041785 0.56088233 0.72883421 255 80 80
0.40363851 0.56014103 0.72774124 255 80 80
0.40372723 0.56021369 0.72633553 255 80 80
0.40067056 0.55621547 0.72652185 255 80 80
0.54358041 0.74207157 0.78142083 255 80 80
0.54369652 0.74216664 0.77958059 255 80 80
0.54381269 0.74226171 0.77774042 255 80 80
0.54206127 0.73993748 0.77647507 255 80 80
0.54030907 0.73761266 0.77522093 255 80 80
0.54042453 0.73770714 0.7733919 255 80 80
0.54053998 0.73780161 0.77156293 255 80 80
0.54065537 0.73789608 0.76973391 255 80 80
0.54077083 0.73799056 0.76790494 255 80 80
0.53901654 0.73566401 0.76668429 255 80 80
0.53913164 0.73575824 0.76486087 255 80 80
0.53924674 0.73585242 0.7630375 255 80 80
0.54123259 0.73836845 0.76058894 255 80 80
0.54321915 0.74088514 0.75812912 255 80 80
0.54333496 0.74097991 0.75629455 255 80 80
0.54345077 0.74107468 0.75445998 255 80 80
0.54169434 0.7387464 0.75327295 255 80 80
0.5418098 0.73884088 0.75144392 255 80 80
0.54192519 0.73893535 0.74961495 255 80 80
0.5439139 0.74145377 0.74712157 255 80 80
0.54402971 0.74154854 0.745287 255 80 80
0.54601938 0.74406779 0.74277687 255 80 80
0.54613554 0.74416286 0.74093664 255 80 80
0.54750144 0.74587464 0.7386387 255 80 80
0.54761785 0.74596989 0.73679483 255 80 80
0.54773426 0.74606514 0.7349509 255 80 80
0.54785061 0.74616039 0.73310697 255 80 80
0.54984307 0.74868184 0.73055398 255 80 80
0.54808336 0.74635088 0.72941911 255 80 80
0.54819977 0.74644613 0.72757518 255 80 80
0.55019325 0.74896842 0.72500545 255 80 80
0.50837964 0.69485235 0.73949158 255 80 80
0.5072366 0.69332302 0.73825836 255 80 80
0.505467 0.69098395 0.73728013 255 80 80
0.50557524 0.69107258 0.73556483 255 80 80
0.50756246 0.69358969 0.73309577 255 80 80
0.50767106 0.69367856 0.73137486 255 80 80
0.50903273 0.69538689 0.72914398 255 80 80
0.48104587 0.65911961 0.73733771 255 80 80
0.47989568 0.65758437 0.73621815 255 80 80
0.47999904 0.65766889 0.73458123 255 80 80
0.48010233 0.65775347 0.73294425 255 80 80
0.47832391 0.65540713 0.73210585 255 80 80
0.47717217 0.6538707 0.73101062 255 80 80
0.47162762 0.64666051 0.73181224 255 80 80
0.46796373 0.64188021 0.73183203 255 80 80
0.4680647 0.64196283 0.73023236 255 80 80
0.45623693 0.62664098 0.73386741 255 80 80
0.45507982 0.62510002 0.73285794 255 80 80
0.44638541 0.61382723 0.73520672 255 80 80
0.44522592 0.61228436 0.73423451 255 80 80
0.44029614 0.60587424 0.73496753 255 80 80
0.44039181 0.6059525 0.73345178 255 80 80
0.43923041 0.60440809 0.73250937 255 80 80
0.4380686 0.60286337 0.73157448 255 80 80
0.43690619 0.60131818 0.73064703 255 80 80
0.43448564 0.59814942 0.73031163 255 80 80
0.42577407 0.5868625 0.73293257 255 80 80
0.42335042 0.58369124 0.73264563 255 80 80
0.42029658 0.57970715 0.7326715 255 80 80
0.41787097 0.57653427 0.73241627 255 80 80
0.41796228 0.57660902 0.73096949 255 80 80
0.4180536 0.57668376 0.72952265 255 80 80
0.40869924 0.56457382 0.732656 255 80 80
0.4087888 0.56464714 0.73123717 255 80 80
0.40761846 0.56309539 0.7304365 255 80 80
0.40644768 0.56154335 0.72964323 255 80 80
0.40464619 0.55917817 0.72917032 255 80 80
0.4034743 0.55762517 0.72839385 255 80 80
0.40356281 0.55769759 0.72699177 255 80 80
0.40175971 0.55533111 0.72654486 255 80 80
0.40184784 0.55540323 0.72514844 255 80 80
0.54988766 0.74725008 0.78181839 255 80 80
0.55000472 0.74734592 0.77996331 255 80 80
0.55012178 0.74744177 0.77810818 255 80 80
0.54836726 0.74512208 0.77682221 255 80 80
0.54661202 0.7428019 0.7755475 255 80 80
0.54360789 0.73887044 0.77467078 255 80 80
0.5437237 0.73896521 0.77283615 255 80 80
0.54383951 0.73905998 0.77100158 255 80 80
0.54395527 0.7391547 0.76916695 255 80 80
0.54407108 0.73924947 0.76733238 255 80 80
0.54418689 0.73934424 0.7654978 255 80 80
0.5424282 0.73702121 0.7642771 255 80 80
0.54254365 0.73711568 0.76244813 255 80 80
0.5426591 0.73721015 0.7606191 255 80 80
0.54465002 0.73972332 0.7581594 255 80 80
0.54476583 0.7398181 0.75632483 255 80 80
0.54488158 0.73991287 0.75449026 255 80 80
0.54499739 0.74000764 0.75265563 255 80 80
0.54511321 0.74010241 0.75082105 255 80 80
0.54522896 0.74019718 0.74898642 255 80 80
0.54722232 0.74271226 0.74648762 255 80 80
0.54733849 0.74280733 0.74464744 255 80 80
0.54745466 0.7429024 0.74280727 255 80 80
0.54882324 0.74461162 0.74051309 255 80 80
0.54893959 0.74470687 0.73866916 255 80 80
0.54905599 0.74480212 0.73682523 255 80 80
0.54917234 0.74489737 0.7349813 255 80 80
0.54928875 0.74499261 0.73313737 255 80 80
0.55128556 0.74751055 0.7305845 255 80 80
0.54952151 0.74518311 0.72944951 255 80 80
0.54963785 0.74527836 0.7276057 255 80 80
0.55163574 0.74779713 0.72503597 255 80 80
0.55175251 0.74789268 0.72318649 255 80 80
0.55186921 0.74798822 0.72133696 255 80 80
0.50890458 0.69249988 0.7331242 255 80 80
0.50901318 0.69258875 0.73140329 255 80 80
0.4821184 0.65791106 0.74064612 255 80 80
0.48232552 0.65808058 0.73736477 255 80 80
0.48117241 0.65654767 0.73624521 255 80 80
0.48127577 0.65663224 0.73460823 255 80 80
0.48137906 0.65671682 0.73297131 255 80 80
0.47959629 0.654374 0.73213279 255 80 80
0.47844163 0.6528399 0.7310375 255 80 80
0.47036824 0.64240313 0.73291838 255 80 80
0.46795329 0.63924843 0.73240197 255 80 80
0.46490821 0.63528341 0.73217404 255 80 80
0.46249124 0.63212699 0.73168933 255 80 80
0.45755568 0.62573117 0.73232901 255 80 80
0.44758216 0.61285549 0.73523206 255 80 80
0.44641975 0.61131501 0.73425978 255 80 80
0.44399729 0.60815418 0.73386085 255 80 80
0.44157401 0.60499257 0.73347682 255 80 80
0.44040969 0.60345054 0.73253435 255 80 80
0.43672451 0.59866714 0.73275352 255 80 80
0.43681923 0.59874469 0.73125267 255 80 80
0.43502292 0.59639084 0.73062855 255 80 80
0.43259546 0.59322584 0.73030978 255 80 80
0.42196962 0.57952178 0.73385382 255 80 80
0.42016944 0.57716477 0.73329121 255 80 80
0.41899937 0.57561803 0.73244011 255 80 80
0.41782883 0.57407087 0.73159647 255 80 80
0.41728884 0.5733344 0.73045695 255 80 80
0.41296166 0.56773096 0.73115283 255 80 80
0.40989539 0.5637486 0.7312606 255 80 80
0.40745938 0.56057668 0.73107791 255 80 80
0.40754846 0.56064957 0.72966653 255 80 80
0.40574262 0.55828792 0.72919351 255 80 80
0.40456781 0.5567373 0.72841698 255 80 80
0.40276071 0.55437464 0.7279644 255 80 80
0.40284884 0.55444676 0.72656798 255 80 80
0.402937 0.55451888 0.72517151 255 80 80
0.55672288 0.75311506 0.78393596 255 80 80
0.55496651 0.75080097 0.78261077 255 80 80
0.55508429 0.75089741 0.78074443 255 80 80
0.55145156 0.74617112 0.77999395 255 80 80
0.55156863 0.74626696 0.77813882 255 80 80
0.55168575 0.74636275 0.77628374 255 80 80
0.54992652 0.74404633 0.77500325 255 80 80
0.55004323 0.74414188 0.77315378 255 80 80
0.54703152 0.74021614 0.77228063 255 80 80
0.54714769 0.74031121 0.77044046 255 80 80
0.54726386 0.74040622 0.76860023 255 80 80
0.54737997 0.74050128 0.76676005 255 80 80
0.54749614 0.74059635 0.76491988 255 80 80
0.54761225 0.74069142 0.76307964 255 80 80
0.54772842 0.74078643 0.76123953 255 80 80
0.54784453 0.7408815 0.75939929 255 80 80
0.54608089 0.73856151 0.75818974 255 80 80
0.5461967 0.73865628 0.75635511 255 80 80
0.54631245 0.73875105 0.75452054 255 80 80
0.54642826 0.73884583 0.75268596 255 80 80
0.54654408 0.7389406 0.75085133 255 80 80
0.54854143 0.74145186 0.74835819 255 80 80
0.54865754 0.74154693 0.74651802 255 80 80
0.54877371 0.741642 0.74467778 255 80 80
0.54888988 0.74173701 0.74283767 255 80 80
0.55214441 0.74586159 0.73986262 255 80 80
0.55226111 0.74595714 0.73801309 255 80 80
0.55237788 0.74605268 0.73616356 255 80 80
0.55249459 0.74614817 0.73431408 255 80 80
0.55261135 0.74624372 0.73246455 255 80 80
0.55272806 0.74633926 0.73061502 255 80 80
0.55472994 0.74885428 0.72805107 255 80 80
0.55296153 0.74653035 0.72691602 255 80 80
0.55307823 0.7466259 0.72506654 255 80 80
0.553195 0.74672145 0.72321701 255 80 80
0.55331171 0.74681699 0.72136754 255 80 80
0.4848645 0.65865666 0.73687452 255 80 80
0.48370871 0.65712631 0.73575115 255 80 80
0.48255244 0.65559554 0.73463529 255 80 80
0.48265579 0.65568012 0.73299831 255 80 80
0.48086867 0.65334088 0.73215973 255 80 80
0.47971109 0.65180916 0.73106438 255 80 80
0.4716188 0.6413877 0.73294485 255 80 80
0.46793702 0.63662124 0.73297179 255 80 80
0.46614566 0.6342786 0.73220026 255 80 80
0.46372291 0.63112694 0.73171544 255 80 80
0.46382257 0.63120848 0.73013628 255 80 80
0.45004085 0.61350095 0.73469901 255 80 80
0.44887576 0.61196303 0.73372298 255 80 80
0.44518533 0.60718954 0.733886 255 80 80
0.44275621 0.60403264 0.73350185 255 80 80
0.44032612 0.60087508 0.7331326 255 80 80
0.43789509 0.59771669 0.73277831 255 80 80
0.4379898 0.59779418 0.73127747 255 80 80
0.43618914 0.5954439 0.73065323 255 80 80
0.43375584 0.59228361 0.73033434 255 80 80
0.4231053 0.57859963 0.73387784 255 80 80
0.42130074 0.57624614 0.73331517 255 80 80
0.42012778 0.57470179 0.73246402 255 80 80
0.41895431 0.57315701 0.73162031 255 80 80
0.4171479 0.57080203 0.73108745 255 80 80
0.41407552 0.56682652 0.73117644 255 80 80
0.41100198 0.56285006 0.73128402 255 80 80
0.40856016 0.55968285 0.73110121 255 80 80
0.40864924 0.55975574 0.72968984 255 80 80
0.40683901 0.5573976 0.72921669 255 80 80
0.40439492 0.55422854 0.72906935 255 80 80
0.40384984 0.55349028 0.72798753 255 80 80
0.4026711 0.55194116 0.72722769 255 80 80
0.40275899 0.55201304 0.72583497 255 80 80
0.55818278 0.75192958 0.7839669 255 80 80
0.55830097 0.75202626 0.78209496 255 80 80
0.55653983 0.74971551 0.78077525 255 80 80
0.55665767 0.74981189 0.77890897 255 80 80
0.55677545 0.74990833 0.77704269 255 80 80
0.55689323 0.75000471 0.77517641 255 80 80
0.55701101 0.75010109 0.77331012 255 80 80
