ply
format ascii 1.0
comment PCL generated
element vertex 1109
property float x
property float y
property float z
property uchar red
property uchar green
property uchar blue
element camera 0
property float view_px
property float view_py
property float view_pz
property float x_axisx
property float x_axisy
property float x_axisz
property float y_axisx
property float y_axisy
property float y_axisz
property float z_axisx
property float z_axisy
property float z_axisz
property float focal
property float scalex
property float scaley
property float centerx
property float centery
property int viewportx
property int viewporty
property float k1
property float k2
end_header
0.43659633 0.70258534 0.89076698 255 80 80
0.43670201 0.70267183 0.88909274 255 80 80
0.43680769 0.70275831 0.88741851 255 80 80
0.43860853 0.70537186 0.88547939 255 80 80
0.43871456 0.70545864 0.88379949 255 80 80
0.43882054 0.70554543 0.88211966 255 80 80
0.4400574 0.70731747 0.88025212 255 80 80
0.44016367 0.70740443 0.87856853 255 80 80
0.44196683 0.71001989 0.8765921 255 80 80
0.44207346 0.71010715 0.87490296 255 80 80
0.4421801 0.71019441 0.87321377 255 80 80
0.44228667 0.71028167 0.87152463 255 80 80
0.44030493 0.70676023 0.85860181 255 80 80
0.44041091 0.70684701 0.85692197 255 80 80
0.44051695 0.7069338 0.85524213 255 80 80
0.43892109 0.70448798 0.85393339 255 80 80
0.43789196 0.70288593 0.85251033 255 80 80
0.43686229 0.70128345 0.8510946 255 80 80
0.43696749 0.70136952 0.84942782 255 80 80
0.43707269 0.70145565 0.84776103 255 80 80
0.4371779 0.70154172 0.84609425 255 80 80
0.4372831 0.70162785 0.84442747 255 80 80
0.4373883 0.70171392 0.84276068 255 80 80
0.4374935 0.70180005 0.84109384 255 80 80
0.43759871 0.70188612 0.83942705 255 80 80
0.43770391 0.70197225 0.83776027 255 80 80
0.43346387 0.69789273 0.96111327 255 80 80
0.43356955 0.69797921 0.95943904 255 80 80
0.43367523 0.6980657 0.95776474 255 80 80
0.43265778 0.69647795 0.95611036 255 80 80
0.43276322 0.69656426 0.95443988 255 80 80
0.43286866 0.69665051 0.95276934 255 80 80
0.43185019 0.69506192 0.95112991 255 80 80
0.4319554 0.69514805 0.94946313 255 80 80
0.4320606 0.69523412 0.94779629 255 80 80
0.4321658 0.69532025 0.9461295 255 80 80
0.432271 0.69540632 0.94446272 255 80 80
0.43237621 0.69549245 0.94279593 255 80 80
0.43360668 0.69725454 0.94107568 255 80 80
0.43371212 0.69734085 0.93940514 255 80 80
0.43381757 0.69742715 0.9377346 255 80 80
0.43392301 0.69751346 0.93606412 255 80 80
0.43402845 0.69759971 0.93439358 255 80 80
0.43300742 0.69600904 0.93279517 255 80 80
0.43311262 0.69609511 0.93112832 255 80 80
0.43321782 0.69618124 0.92946154 255 80 80
0.43332303 0.69626731 0.92779475 255 80 80
0.43342823 0.69635344 0.92612797 255 80 80
0.43353343 0.6964395 0.92446113 255 80 80
0.43363863 0.69652563 0.92279434 255 80 80
0.43374383 0.6966117 0.92112756 255 80 80
0.43384904 0.69669783 0.91946077 255 80 80
0.43395424 0.6967839 0.91779399 255 80 80
0.43405944 0.69687003 0.9161272 255 80 80
0.43416464 0.6969561 0.91446042 255 80 80
0.43539912 0.69872153 0.91267675 255 80 80
0.43663406 0.70048726 0.91088569 255 80 80
0.43561 0.69889408 0.90933573 255 80 80
0.43571544 0.69898039 0.90766519 255 80 80
0.43582088 0.6990667 0.90599465 255 80 80
0.43592632 0.69915295 0.90432411 255 80 80
0.43603176 0.69923925 0.90265363 255 80 80
0.4361372 0.69932556 0.9009831 255 80 80
0.43624264 0.69941187 0.89931256 255 80 80
0.43634808 0.69949812 0.89764202 255 80 80
0.43758512 0.70126557 0.8958174 255 80 80
0.43769079 0.70135206 0.89414316 255 80 80
0.43779647 0.70143855 0.89246887 255 80 80
0.43790215 0.70152503 0.89079463 255 80 80
0.43800777 0.70161152 0.8891204 255 80 80
0.43811345 0.70169801 0.88744611 255 80 80
0.43991864 0.70430803 0.88550711 255 80 80
0.44002467 0.70439482 0.88382727 255 80 80
0.44013071 0.7044816 0.88214743 255 80 80
0.44137049 0.70625126 0.8802799 255 80 80
0.4414767 0.70633823 0.87859631 255 80 80
0.44328427 0.70895016 0.87661999 255 80 80
0.44339091 0.70903742 0.87493086 255 80 80
0.44349748 0.70912468 0.87324166 255 80 80
0.44360411 0.70921189 0.87155253 255 80 80
0.44768375 0.71519339 0.86912811 255 80 80
0.44161505 0.7056964 0.85862958 255 80 80
0.44172108 0.70578313 0.85694975 255 80 80
0.44182712 0.70586991 0.85526991 255 80 80
0.44193316 0.7059567 0.85359001 255 80 80
0.44033259 0.70351416 0.85228682 255 80 80
0.4393003 0.70191431 0.85086739 255 80 80
0.43826747 0.70031393 0.84945536 255 80 80
0.43837267 0.70040005 0.84778857 255 80 80
0.43847787 0.70048612 0.84612179 255 80 80
0.43858308 0.70057225 0.844455 255 80 80
0.43868828 0.70065832 0.84278816 255 80 80
0.43879348 0.70074445 0.84112138 255 80 80
0.43889868 0.70083052 0.83945459 255 80 80
0.44014376 0.70260459 0.83750319 255 80 80
0.43476969 0.69683242 0.96114093 255 80 80
0.43487537 0.6969189 0.95946664 255 80 80
0.43498105 0.69700539 0.9577924 255 80 80
0.43396068 0.69542003 0.95613796 255 80 80
0.43406612 0.69550627 0.95446748 255 80 80
0.43417156 0.69559258 0.95279694 255 80 80
0.434277 0.69567889 0.9511264 255 80 80
0.43325537 0.69409245 0.94949061 255 80 80
0.43336058 0.69417858 0.94782382 255 80 80
0.43346578 0.69426465 0.94615704 255 80 80
0.4346987 0.69602406 0.9444443 255 80 80
0.43480414 0.69611031 0.94277376 255 80 80
0.43490958 0.69619662 0.94110328 255 80 80
0.43501502 0.69628292 0.93943274 255 80 80
0.43512046 0.69636917 0.9377622 255 80 80
0.4352259 0.69645548 0.93609166 255 80 80
0.43420219 0.69486731 0.93448949 255 80 80
0.4343074 0.69495344 0.93282264 255 80 80
0.4344126 0.69503951 0.93115586 255 80 80
0.4345178 0.69512564 0.92948908 255 80 80
0.434623 0.69521171 0.92782229 255 80 80
0.43472821 0.69529784 0.92615551 255 80 80
0.43483341 0.69538391 0.92448866 255 80 80
0.43493861 0.69547004 0.92282188 255 80 80
0.43504381 0.6955561 0.9211551 255 80 80
0.43514901 0.69564223 0.91948831 255 80 80
0.43525422 0.6957283 0.91782153 255 80 80
0.43535942 0.69581443 0.91615474 255 80 80
0.43546456 0.6959005 0.9144879 255 80 80
0.43670201 0.69766355 0.91270435 255 80 80
0.43793982 0.69942695 0.91091329 255 80 80
0.43691289 0.69783616 0.90936327 255 80 80
0.43701833 0.69792247 0.90769279 255 80 80
0.43712378 0.69800872 0.90602225 255 80 80
0.43722922 0.69809502 0.90435171 255 80 80
0.43733466 0.69818133 0.90268117 255 80 80
0.4374401 0.69826758 0.90101069 255 80 80
0.43754554 0.69835389 0.89934015 255 80 80
0.43765098 0.69844019 0.89766961 255 80 80
0.43889087 0.70020527 0.89584506 255 80 80
0.43899655 0.70029175 0.89417076 255 80 80
0.43910223 0.70037824 0.89249653 255 80 80
0.43920791 0.70046473 0.89082229 255 80 80
0.43931359 0.70055121 0.889148 255 80 80
0.43941927 0.7006377 0.88747376 255 80 80
0.44122881 0.70324415 0.88553482 255 80 80
0.44133484 0.70333093 0.88385499 255 80 80
0.44144088 0.70341772 0.88217515 255 80 80
0.44268352 0.70518506 0.88030767 255 80 80
0.44278979 0.70527202 0.87862414 255 80 80
0.44460171 0.70788038 0.87664789 255 80 80
0.44470829 0.70796764 0.87495875 255 80 80
0.44481492 0.7080549 0.87326956 255 80 80
0.44492155 0.70814216 0.87158042 255 80 80
0.44730431 0.71159285 0.86947125 255 80 80
0.44292521 0.70463252 0.8586573 255 80 80
0.44303125 0.70471931 0.85697746 255 80 80
0.44313729 0.70480609 0.85529763 255 80 80
0.44324332 0.70489287 0.85361773 255 80 80
0.44163835 0.70245385 0.85231441 255 80 80
0.4406032 0.70085633 0.85089493 255 80 80
0.44070864 0.70094264 0.84922439 255 80 80
0.44081408 0.70102894 0.84755391 255 80 80
0.44091946 0.70111519 0.84588337 255 80 80
0.44102496 0.7012015 0.84421283 255 80 80
0.44113034 0.70128781 0.84254229 255 80 80
0.44123578 0.70137405 0.84087181 255 80 80
0.44248372 0.70314574 0.83892041 255 80 80
0.4425894 0.70323223 0.83724618 255 80 80
0.44555259 0.70753312 0.83485115 255 80 80
0.43787384 0.69836235 0.95947582 255 80 80
0.43628681 0.69594508 0.95782006 255 80 80
0.43526357 0.69436204 0.95616555 255 80 80
0.43536896 0.69444835 0.95449501 255 80 80
0.4354744 0.69453466 0.95282453 255 80 80
0.43557984 0.69462091 0.95115399 255 80 80
0.43568528 0.69470721 0.94948345 255 80 80
0.43579072 0.69479352 0.94781291 255 80 80
0.43589616 0.69487977 0.94614244 255 80 80
0.4360016 0.69496608 0.9444719 255 80 80
0.43723786 0.69672346 0.94275177 255 80 80
0.43734354 0.69680989 0.94107753 255 80 80
0.43631792 0.69522494 0.93946034 255 80 80
0.43529177 0.69363958 0.93785059 255 80 80
0.43539697 0.69372565 0.93618381 255 80 80
0.43550217 0.69381177 0.93451697 255 80 80
0.433909 0.6913895 0.93295813 255 80 80
0.43401384 0.69147533 0.93129694 255 80 80
0.43411869 0.6915611 0.92963576 255 80 80
0.43422353 0.69164693 0.92797452 255 80 80
0.43602818 0.69424224 0.92618299 255 80 80
0.43613333 0.69432837 0.9245162 255 80 80
0.43623859 0.69441444 0.92284942 255 80 80
0.43634373 0.69450057 0.92118263 255 80 80
0.43644899 0.69458663 0.91951585 255 80 80
0.43655413 0.69467276 0.91784906 255 80 80
0.43779403 0.69643301 0.91607296 255 80 80
0.43789947 0.69651932 0.91440243 255 80 80
0.43800491 0.69660562 0.91273195 255 80 80
0.43811035 0.69669193 0.91106141 255 80 80
0.43935132 0.69845313 0.90926671 255 80 80
0.439457 0.69853961 0.90759248 255 80 80
0.43842667 0.69695079 0.90604985 255 80 80
0.43853205 0.6970371 0.90437931 255 80 80
0.4386375 0.69712335 0.90270877 255 80 80
0.43760616 0.69553375 0.9011811 255 80 80
0.43771136 0.69561982 0.89951426 255 80 80
0.43781656 0.69570589 0.89784747 255 80 80
0.43905926 0.69746852 0.89602667 255 80 80
0.4391647 0.69755483 0.89435619 255 80 80
0.44040805 0.69931793 0.89252418 255 80 80
0.44051367 0.69940442 0.89084995 255 80 80
0.44061935 0.6994909 0.88917565 255 80 80
0.44072503 0.69957739 0.88750142 255 80 80
0.44253898 0.70218033 0.8855626 255 80 80
0.44264501 0.70226711 0.88388276 255 80 80
0.44275099 0.70235384 0.88220292 255 80 80
0.44399661 0.70411885 0.88033551 255 80 80
0.44410282 0.70420581 0.87865192 255 80 80
0.4459191 0.70681065 0.87667578 255 80 80
0.44602573 0.70689791 0.87498665 255 80 80
0.44613236 0.70698518 0.87329745 255 80 80
0.44623893 0.70707238 0.87160832 255 80 80
0.44634557 0.70715964 0.86991912 255 80 80
0.44873464 0.71060604 0.86780262 255 80 80
0.44927007 0.71104425 0.85931951 255 80 80
0.44537801 0.70524937 0.85844904 255 80 80
0.44548422 0.70533633 0.85676545 255 80 80
0.4444474 0.70374221 0.85532534 255 80 80
0.44455343 0.70382899 0.8536455 255 80 80
0.44465947 0.70391577 0.85196567 255 80 80
0.44304985 0.70148003 0.85066783 255 80 80
0.44315553 0.70156652 0.8489936 255 80 80
0.44326121 0.701653 0.84731936 255 80 80
0.44336683 0.70173949 0.84564507 255 80 80
0.4434725 0.70182598 0.84397084 255 80 80
0.44357818 0.70191246 0.8422966 255 80 80
0.44368386 0.70199895 0.84062237 255 80 80
0.44378954 0.70208544 0.83894807 255 80 80
0.44561368 0.70469671 0.83684707 255 80 80
0.44686562 0.70646691 0.83487892 255 80 80
0.43759263 0.69488478 0.95784771 255 80 80
0.43656641 0.69330412 0.95619315 255 80 80
0.43667185 0.69339037 0.95452261 255 80 80
0.43677729 0.69347668 0.95285207 255 80 80
0.43801528 0.69523072 0.95115066 255 80 80
0.43812096 0.69531721 0.94947642 255 80 80
0.43822664 0.6954037 0.94780219 255 80 80
0.43833232 0.69549018 0.94612795 255 80 80
0.438438 0.69557667 0.94445366 255 80 80
0.43854368 0.69566309 0.94277942 255 80 80
0.43751538 0.69408071 0.94115841 255 80 80
0.43648654 0.69249785 0.93954492 255 80 80
0.43489003 0.69008005 0.93796921 255 80 80
0.43499488 0.69016582 0.93630797 255 80 80
0.43509978 0.69025165 0.93464679 255 80 80
0.43520457 0.69033748 0.93298554 255 80 80
0.43530947 0.69042325 0.93132436 255 80 80
0.43541431 0.69050908 0.92966318 255 80 80
0.43551916 0.69059491 0.928002 255 80 80
0.435624 0.69068068 0.92634076 255 80 80
0.4374333 0.69327277 0.92454374 255 80 80
0.43753856 0.69335884 0.92287695 255 80 80
0.43764371 0.69344497 0.92121017 255 80 80
0.43774897 0.69353104 0.91954333 255 80 80
0.43785411 0.69361717 0.91787654 255 80 80
0.43909693 0.69537508 0.91610056 255 80 80
0.43920237 0.69546139 0.91443002 255 80 80
0.43930775 0.6955477 0.91275954 255 80 80
0.43941319 0.69563395 0.911089 255 80 80
0.44065708 0.69739282 0.90929437 255 80 80
0.44076276 0.69747931 0.90762007 255 80 80
0.43972951 0.69589281 0.90607744 255 80 80
0.43869573 0.69430596 0.90454221 255 80 80
0.43880093 0.69439203 0.90287542 255 80 80
0.43890613 0.69447815 0.90120858 255 80 80
0.43901134 0.69456422 0.8995418 255 80 80
0.43911654 0.69465035 0.89787501 255 80 80
0.44036216 0.6964106 0.89605427 255 80 80
0.4404676 0.69649684 0.89438373 255 80 80
0.44171381 0.69825763 0.89255184 255 80 80
0.44181949 0.69834411 0.89087754 255 80 80
0.44192517 0.6984306 0.88920331 255 80 80
0.44203085 0.69851708 0.88752908 255 80 80
0.44213653 0.69860357 0.88585478 255 80 80
0.44395512 0.70120323 0.88391048 255 80 80
0.44406116 0.70129001 0.88223064 255 80 80
0.4441672 0.7013768 0.8805508 255 80 80
0.44541591 0.70313954 0.87867969 255 80 80
0.44552219 0.70322657 0.87699616 255 80 80
0.44734317 0.70582813 0.87501454 255 80 80
0.44744974 0.70591539 0.87332535 255 80 80
0.44755638 0.70600265 0.87163621 255 80 80
0.44766301 0.70608991 0.86994702 255 80 80
0.45005786 0.70953155 0.86783063 255 80 80
0.45027202 0.70970684 0.8644374 255 80 80
0.45059329 0.70996976 0.85934752 255 80 80
0.44669104 0.70418316 0.85847682 255 80 80
0.44679731 0.70427012 0.85679322 255 80 80
0.44575757 0.70267838 0.85535312 255 80 80
0.4458636 0.70276517 0.85367322 255 80 80
0.44596964 0.70285195 0.85199338 255 80 80
0.44435561 0.70041972 0.85069549 255 80 80
0.44446129 0.70050621 0.84902126 255 80 80
0.44456697 0.7005927 0.84734696 255 80 80
0.44467264 0.70067918 0.84567273 255 80 80
0.44477832 0.70076567 0.84399849 255 80 80
0.444884 0.70085216 0.8423242 255 80 80
0.44498968 0.70093864 0.84064996 255 80 80
0.44509536 0.70102513 0.83897573 255 80 80
0.44692385 0.70363289 0.83687472 255 80 80
0.44817871 0.70540065 0.83490676 255 80 80
0.43776387 0.69215989 0.95789123 255 80 80
0.43786931 0.69224614 0.95622075 255 80 80
0.43797475 0.69233245 0.95455021 255 80 80
0.44091827 0.69658172 0.95281196 255 80 80
0.4410243 0.69666851 0.95113206 255 80 80
0.44113034 0.69675523 0.94945222 255 80 80
0.44123632 0.69684201 0.94777238 255 80 80
0.44134235 0.6969288 0.94609255 255 80 80
0.44144839 0.69701558 0.94441271 255 80 80
0.43984944 0.69460285 0.94280708 255 80 80
0.43881822 0.69302279 0.94118601 255 80 80
0.43778652 0.69144231 0.93957239 255 80 80
0.43618566 0.68902797 0.93799663 255 80 80
0.4362905 0.6891138 0.93633538 255 80 80
0.43525755 0.68753231 0.93474233 255 80 80
0.43536216 0.6876179 0.93308485 255 80 80
0.43546677 0.68770355 0.93142736 255 80 80
0.43557137 0.68778914 0.92976987 255 80 80
0.43681479 0.68954283 0.92802942 255 80 80
0.43691963 0.68962866 0.92636818 255 80 80
0.43702447 0.68971443 0.924707 255 80 80
0.43883848 0.6923033 0.92290449 255 80 80
0.43894368 0.69238937 0.92123765 255 80 80
0.44018894 0.69414455 0.91946918 255 80 80
0.44029433 0.69423085 0.91779864 255 80 80
0.44154018 0.69598657 0.91601902 255 80 80
0.44164586 0.69607306 0.91434473 255 80 80
0.44175154 0.69615954 0.91267049 255 80 80
0.44185722 0.69624603 0.91099626 255 80 80
0.4419629 0.69633251 0.90932196 255 80 80
0.44206858 0.696419 0.90764773 255 80 80
0.44103241 0.69483489 0.90610498 255 80 80
0.43999571 0.69325036 0.90456969 255 80 80
0.44010091 0.69333643 0.9029029 255 80 80
0.44020611 0.69342256 0.90123612 255 80 80
0.44031131 0.69350863 0.89956927 255 80 80
0.44041651 0.69359475 0.89790249 255 80 80
0.44166505 0.69535261 0.89608186 255 80 80
0.44291395 0.69711083 0.89425373 255 80 80
0.44301963 0.69719732 0.8925795 255 80 80
0.44312531 0.6972838 0.8909052 255 80 80
0.44323093 0.69737029 0.88923097 255 80 80
0.44333661 0.69745678 0.88755673 255 80 80
0.44344229 0.69754326 0.88588244 255 80 80
0.44526529 0.7001394 0.88393819 255 80 80
0.44537133 0.70022619 0.88225836 255 80 80
0.44547737 0.70031291 0.88057852 255 80 80
0.44672894 0.70207334 0.87870753 255 80 80
0.44683522 0.70216036 0.87702394 255 80 80
0.44866055 0.70475841 0.87504244 255 80 80
0.44704777 0.70233428 0.87365681 255 80 80
0.44715399 0.70242125 0.87197322 255 80 80
0.44898045 0.70502013 0.86997491 255 80 80
0.45023406 0.70678222 0.86807221 255 80 80
0.45034087 0.70686966 0.86637926 255 80 80
0.45159525 0.70863235 0.86446542 255 80 80
0.4545716 0.71290851 0.86220694 255 80 80
0.45467931 0.7129966 0.86050099 255 80 80
0.45363879 0.71140891 0.85902727 255 80 80
0.45202363 0.70898294 0.85767889 255 80 80
0.44811034 0.70320392 0.85682106 255 80 80
0.44821662 0.70329088 0.85513747 255 80 80
0.44832289 0.70337784 0.85345387 255 80 80
0.44842917 0.70346481 0.85177028 255 80 80
0.44738579 0.70187485 0.85034126 255 80 80
0.44749182 0.70196164 0.84866142 255 80 80
0.44759786 0.70204842 0.84698159 255 80 80
0.4477039 0.70213515 0.84530175 255 80 80
0.44780988 0.70222193 0.84362191 255 80 80
0.44791591 0.70230871 0.84194207 255 80 80
0.44802195 0.7023955 0.84026223 255 80 80
0.44927925 0.70416051 0.83830172 255 80 80
0.45514292 0.71263993 0.8351962 255 80 80
0.44949174 0.70433444 0.83493459 255 80 80
0.43906677 0.69110191 0.95791882 255 80 80
0.43917221 0.69118822 0.95624828 255 80 80
0.43927765 0.69127452 0.9545778 255 80 80
0.44222844 0.69551784 0.95283967 255 80 80
0.44233447 0.69560462 0.95115983 255 80 80
0.44244045 0.69569141 0.94948 255 80 80
0.44254649 0.69577819 0.94780016 255 80 80
0.44265252 0.69586498 0.94612026 255 80 80
0.44275856 0.6959517 0.94444042 255 80 80
0.44115525 0.69354248 0.94283473 255 80 80
0.44012111 0.69196481 0.94121361 255 80 80
0.43908644 0.69038671 0.93959993 255 80 80
0.43748128 0.68797594 0.93802404 255 80 80
0.43758613 0.68806177 0.93636286 255 80 80
0.43655026 0.68648261 0.93476969 255 80 80
0.43665487 0.68656826 0.9331122 255 80 80
0.43675947 0.68665385 0.93145472 255 80 80
0.43686408 0.68673944 0.92979729 255 80 80
0.43811035 0.68849081 0.92805684 255 80 80
0.4382152 0.68857658 0.92639565 255 80 80
0.43832004 0.68866241 0.92473441 255 80 80
0.44013846 0.6912477 0.92293197 255 80 80
0.44024366 0.69133377 0.92126518 255 80 80
0.44149178 0.69308662 0.91949677 255 80 80
0.44159722 0.69317293 0.91782624 255 80 80
0.442846 0.69492626 0.91604662 255 80 80
0.44295168 0.69501275 0.91437238 255 80 80
0.44305736 0.69509923 0.91269815 255 80 80
0.44316298 0.69518572 0.91102391 255 80 80
0.44326866 0.69527221 0.90934962 255 80 80
0.44337434 0.69535869 0.90767539 255 80 80
0.44233531 0.69377697 0.90613258 255 80 80
0.44129568 0.69219476 0.90459722 255 80 80
0.44140089 0.69228089 0.90293044 255 80 80
0.44150609 0.69236696 0.90126365 255 80 80
0.44161129 0.69245309 0.89959681 255 80 80
0.44171649 0.69253916 0.89793003 255 80 80
0.44296789 0.69429469 0.8961094 255 80 80
0.44421971 0.69605052 0.89428139 255 80 80
0.44432539 0.69613701 0.89260709 255 80 80
0.44443107 0.6962235 0.89093286 255 80 80
0.44453675 0.69630998 0.88925862 255 80 80
0.44464242 0.69639647 0.88758433 255 80 80
0.44646943 0.6989888 0.88564581 255 80 80
0.44657546 0.69907552 0.88396597 255 80 80
0.4466815 0.6991623 0.88228613 255 80 80
0.44678754 0.69924909 0.88060623 255 80 80
0.44804204 0.70100713 0.8787353 255 80 80
0.44814831 0.70109409 0.87705171 255 80 80
0.44997799 0.70368862 0.87507033 255 80 80
0.4483608 0.70126808 0.87368459 255 80 80
0.44846708 0.70135498 0.87200099 255 80 80
0.45029783 0.70395041 0.87000281 255 80 80
0.45155436 0.70571011 0.86810017 255 80 80
0.45166123 0.70579755 0.86640728 255 80 80
0.45291853 0.70755786 0.86449343 255 80 80
0.45590216 0.71182811 0.86223513 255 80 80
0.45600981 0.71191621 0.86052918 255 80 80
0.45611745 0.71200436 0.85882324 255 80 80
0.45507383 0.71041882 0.85735315 255 80 80
0.4551813 0.71050674 0.8556509 255 80 80
0.45356101 0.70808375 0.85431367 255 80 80
0.45366812 0.70817137 0.85261703 255 80 80
0.45147061 0.70491016 0.85142195 255 80 80
0.44984847 0.70248556 0.85011452 255 80 80
0.44995469 0.70257252 0.84843093 255 80 80
0.45006096 0.70265949 0.8467474 255 80 80
0.45016724 0.70274645 0.84506381 255 80 80
0.45200366 0.70534647 0.84297609 255 80 80
0.45326394 0.70710921 0.84101379 255 80 80
0.45337081 0.70719671 0.8393209 255 80 80
0.45463187 0.70896012 0.83734739 255 80 80
0.45647055 0.71156186 0.83522427 255 80 80
0.45027751 0.70432889 0.95440775 255 80 80
0.45038497 0.70441681 0.95270556 255 80 80
0.44878048 0.70201379 0.95104939 255 80 80
0.44774598 0.70044053 0.94938719 255 80 80
0.44785279 0.70052797 0.9476943 255 80 80
0.44681764 0.69895422 0.94604325 255 80 80
0.44692427 0.69904143 0.94435412 255 80 80
0.4470309 0.69912869 0.94266492 255 80 80
0.44542342 0.69672322 0.94105542 255 80 80
0.44267237 0.69265515 0.93951386 255 80 80
0.44049162 0.68941724 0.93796068 255 80 80
0.44059682 0.68950331 0.93629384 255 80 80
0.4389866 0.68709552 0.93472904 255 80 80
0.43909144 0.68718135 0.93306786 255 80 80
0.43919629 0.68726712 0.93140668 255 80 80
0.43930113 0.68735296 0.92974544 255 80 80
0.43940598 0.68743873 0.92808425 255 80 80
0.44122803 0.69001991 0.92629308 255 80 80
0.44133323 0.69010597 0.92462629 255 80 80
0.4425838 0.69185609 0.92286539 255 80 80
0.44268924 0.69194239 0.92119491 255 80 80
0.44394046 0.69369298 0.91942281 255 80 80
0.44404608 0.69377947 0.91774857 255 80 80
0.44587111 0.69636303 0.91591078 255 80 80
0.44597715 0.69644976 0.91423094 255 80 80
0.44608319 0.69653654 0.91255111 255 80 80
0.44618922 0.69662333 0.91087127 255 80 80
0.4462952 0.69671011 0.90919143 255 80 80
0.44640124 0.69679689 0.90751153 255 80 80
0.44650728 0.69688368 0.90583169 255 80 80
0.44489151 0.6944713 0.90435451 255 80 80
0.44499713 0.69455779 0.90268028 255 80 80
0.44510281 0.69464427 0.90100604 255 80 80
0.44520849 0.69473076 0.89933175 255 80 80
0.44531417 0.69481725 0.89765751 255 80 80
0.44714344 0.69740427 0.89575261 255 80 80
0.44724947 0.69749105 0.89407277 255 80 80
0.44735545 0.69757783 0.89239293 255 80 80
0.44746149 0.69766462 0.8907131 255 80 80
0.44756752 0.6977514 0.88903326 255 80 80
0.44767356 0.69783813 0.88735342 255 80 80
0.4477796 0.69792491 0.88567352 255 80 80
0.4490363 0.69968003 0.88381386 255 80 80
0.44914258 0.69976699 0.88213027 255 80 80
0.4509756 0.70235711 0.8801657 255 80 80
0.45108217 0.70244437 0.8784765 255 80 80
0.4511888 0.70253164 0.87678736 255 80 80
0.4524473 0.70428818 0.87489969 255 80 80
0.45255417 0.70437562 0.87320679 255 80 80
0.45266098 0.70446306 0.8715139 255 80 80
0.45276785 0.7045505 0.86982101 255 80 80
0.45287472 0.704638 0.86812812 255 80 80
0.45413464 0.70639575 0.86621803 255 80 80
0.45597166 0.70898908 0.8641901 255 80 80
0.45723265 0.71074772 0.86226332 255 80 80
0.45907098 0.71334219 0.86021483 255 80 80
0.45917898 0.71343058 0.85850328 255 80 80
0.45755565 0.71101207 0.85714543 255 80 80
0.45766336 0.71110022 0.85543948 255 80 80
0.457771 0.71118832 0.85373354 255 80 80
0.45672375 0.70960456 0.85227454 255 80 80
0.45394319 0.70551246 0.85119915 255 80 80
0.45289463 0.7039277 0.84976065 255 80 80
0.45300126 0.70401496 0.84807152 255 80 80
0.45310783 0.70410222 0.84638232 255 80 80
0.45321447 0.70418942 0.84469318 255 80 80
0.4533211 0.70427668 0.84300399 255 80 80
0.4545843 0.7060371 0.84104174 255 80 80
0.45469111 0.70612454 0.83934885 255 80 80
0.45595509 0.70788562 0.8373754 255 80 80
0.45895541 0.71215767 0.83496809 255 80 80
0.45160508 0.70325089 0.95443588 255 80 80
0.45171255 0.7033388 0.95273364 255 80 80
0.4501037 0.7009393 0.9510774 255 80 80
0.45021075 0.70102698 0.94938076 255 80 80
0.45031786 0.70111459 0.94768417 255 80 80
0.45042497 0.70120221 0.94598752 255 80 80
0.44938684 0.69963074 0.94433641 255 80 80
0.44834828 0.69805896 0.94269282 255 80 80
0.44673651 0.69565701 0.94108319 255 80 80
0.44397819 0.69159484 0.93954146 255 80 80
0.44179159 0.68836164 0.93798816 255 80 80
0.4418968 0.68844771 0.93632138 255 80 80
0.44028217 0.6860435 0.93475652 255 80 80
0.44038707 0.68612927 0.93309528 255 80 80
0.44049191 0.6862151 0.93143409 255 80 80
0.44059676 0.68630087 0.92977285 255 80 80
0.4407016 0.6863867 0.92811167 255 80 80
0.44252801 0.68896431 0.92632061 255 80 80
0.44263321 0.68905044 0.92465383 255 80 80
0.4438867 0.69079816 0.92289299 255 80 80
0.44514054 0.69254619 0.9211247 255 80 80
0.44524622 0.69263268 0.91945046 255 80 80
0.44707525 0.69521236 0.91761839 255 80 80
0.44718128 0.69529915 0.91593856 255 80 80
0.44728732 0.69538593 0.91425866 255 80 80
0.44854295 0.69713545 0.91246241 255 80 80
0.44749933 0.6955595 0.91089898 255 80 80
0.44760537 0.69564623 0.90921915 255 80 80
0.44771141 0.69573301 0.90753931 255 80 80
0.44781744 0.6958198 0.90585941 255 80 80
0.44619727 0.69341099 0.90438217 255 80 80
0.44630295 0.69349748 0.90270793 255 80 80
0.4481355 0.69608009 0.9008199 255 80 80
0.44651431 0.69367045 0.89935941 255 80 80
0.44661999 0.69375694 0.89768517 255 80 80
0.44845361 0.69634044 0.89578032 255 80 80
0.44855958 0.69642723 0.89410049 255 80 80
0.44981807 0.69817901 0.89225954 255 80 80
0.44877166 0.69660074 0.89074081 255 80 80
0.44887769 0.69668752 0.88906097 255 80 80
0.45013684 0.6984399 0.88720882 255 80 80
0.45024312 0.69852686 0.88552523 255 80 80
0.45034939 0.69861382 0.88384163 255 80 80
0.45045561 0.69870079 0.8821581 255 80 80
0.45229304 0.70128739 0.88019359 255 80 80
0.45239961 0.70137459 0.8785044 255 80 80
0.45250624 0.70146185 0.87681526 255 80 80
0.45376766 0.70321608 0.87492764 255 80 80
0.45387447 0.70330352 0.87323475 255 80 80
0.45398134 0.70339096 0.87154186 255 80 80
0.45408821 0.7034784 0.86984897 255 80 80
0.45419502 0.70356584 0.86815608 255 80 80
0.45545793 0.70532131 0.86624604 255 80 80
0.45729929 0.70791107 0.86421824 255 80 80
0.45856315 0.70966733 0.86229146 255 80 80
0.46040583 0.71225822 0.86024308 255 80 80
0.46051389 0.71234667 0.85853153 255 80 80
0.45888621 0.70993173 0.85717362 255 80 80
0.45899385 0.71001983 0.85546768 255 80 80
0.4591015 0.71010792 0.85376173 255 80 80
0.4592092 0.71019608 0.85205579 255 80 80
0.45815879 0.70861447 0.85060048 255 80 80
0.45652872 0.70619768 0.84927982 255 80 80
0.45663583 0.7062853 0.84758317 255 80 80
0.45558405 0.70470268 0.84614837 255 80 80
0.45569092 0.70479012 0.84445548 255 80 80
0.45579779 0.70487756 0.84276259 255 80 80
0.45706415 0.70663589 0.84079665 255 80 80
0.45601147 0.70505244 0.83937681 255 80 80
0.45727831 0.70681113 0.83740342 255 80 80
0.4602859 0.71107727 0.83499628 255 80 80
0.45304018 0.70226079 0.95276177 255 80 80
0.45142692 0.69986486 0.95110542 255 80 80
0.45153403 0.69995248 0.94940877 255 80 80
0.45336246 0.70252454 0.94765508 255 80 80
0.45174819 0.70012772 0.94601554 255 80 80
0.45070714 0.69855863 0.94436437 255 80 80
0.44966573 0.69698918 0.94272071 255 80 80
0.44804955 0.69459081 0.94111097 255 80 80
0.44528395 0.69053453 0.93956912 255 80 80
0.44309157 0.68730605 0.9380157 255 80 80
0.44319677 0.68739212 0.93634892 255 80 80
0.44330198 0.68747824 0.93468213 255 80 80
0.44168264 0.68507725 0.93312275 255 80 80
0.44178754 0.68516302 0.93146151 255 80 80
0.44189239 0.68524885 0.92980033 255 80 80
0.44199723 0.68533468 0.92813909 255 80 80
0.44382799 0.68790871 0.92634815 255 80 80
0.44393319 0.68799484 0.92468131 255 80 80
0.44518954 0.68974018 0.92292058 255 80 80
0.44932467 0.69563437 0.92090809 255 80 80
0.44943094 0.69572133 0.9192245 255 80 80
0.44953722 0.69580829 0.91754097 255 80 80
0.44964349 0.69589525 0.91585737 255 80 80
0.44974977 0.69598222 0.91417378 255 80 80
0.44985598 0.69606918 0.91249025 255 80 80
0.44996226 0.69615614 0.91080666 255 80 80
0.44891554 0.6945824 0.90924686 255 80 80
0.44902158 0.69466919 0.90756702 255 80 80
0.44912761 0.69475591 0.90588719 255 80 80
0.44750309 0.69235069 0.90440983 255 80 80
0.44760877 0.69243717 0.90273553 255 80 80
0.44944566 0.69501626 0.90084761 255 80 80
0.4495517 0.69510305 0.89916778 255 80 80
0.44965774 0.69518983 0.89748794 255 80 80
0.44976372 0.69527656 0.8958081 255 80 80
0.45102489 0.69702584 0.89397091 255 80 80
0.45113111 0.6971128 0.89228731 255 80 80
0.45123738 0.69719976 0.89060372 255 80 80
0.45134366 0.69728673 0.88892019 255 80 80
0.45144993 0.69737369 0.8872366 255 80 80
0.45155615 0.69746065 0.885553 255 80 80
0.45166242 0.69754761 0.88386941 255 80 80
0.4517687 0.69763458 0.88218588 255 80 80
0.45361042 0.7002176 0.88022149 255 80 80
0.45371705 0.70030487 0.87853229 255 80 80
0.45382369 0.70039213 0.87684315 255 80 80
0.45393026 0.70047939 0.87515402 255 80 80
0.45403689 0.70056665 0.87346482 255 80 80
0.45414352 0.70065385 0.87177563 255 80 80
0.45540851 0.70240629 0.86987692 255 80 80
0.45551538 0.70249373 0.86818403 255 80 80
0.45851946 0.70674509 0.86594856 255 80 80
0.459786 0.70849884 0.86402559 255 80 80
0.46163267 0.71108592 0.86198288 255 80 80
0.46290034 0.7128405 0.86004311 255 80 80
0.46300858 0.71292913 0.85832787 255 80 80
0.46195674 0.71135116 0.85684824 255 80 80
0.4620648 0.71143955 0.85513675 255 80 80
0.46217281 0.71152794 0.8534252 255 80 80
0.4605397 0.70911568 0.85208392 255 80 80
0.4606474 0.70920384 0.85037798 255 80 80
0.45959383 0.70762438 0.84892637 255 80 80
0.45970124 0.70771229 0.84722412 255 80 80
0.45980871 0.70780027 0.84552193 255 80 80
0.45817322 0.7053861 0.84421796 255 80 80
0.45828032 0.70547378 0.84252131 255 80 80
0.45838743 0.7055614 0.84082466 255 80 80
0.46314502 0.71232367 0.83802134 255 80 80
0.45860159 0.7057367 0.83743143 255 80 80
0.45436776 0.70118272 0.95278984 255 80 80
0.45447516 0.7012707 0.95108765 255 80 80
0.45458263 0.70135862 0.9493854 255 80 80
0.45469004 0.70144653 0.94768322 255 80 80
0.45307142 0.69905329 0.94604355 255 80 80
0.4520275 0.69748652 0.94439232 255 80 80
0.45098317 0.69591945 0.94274861 255 80 80
0.44821119 0.69186985 0.94119167 255 80 80
0.44658977 0.68947423 0.93959677 255 80 80
0.44554353 0.68790561 0.93798292 255 80 80
0.44564897 0.68799192 0.93631238 255 80 80
0.44460195 0.68642265 0.93470967 255 80 80
0.44470716 0.68650877 0.93304282 255 80 80
0.44308311 0.684111 0.93148893 255 80 80
0.44318795 0.68419683 0.92982775 255 80 80
0.4432928 0.6842826 0.92816657 255 80 80
0.44512796 0.68685317 0.92637569 255 80 80
0.44523317 0.68693924 0.92470884 255 80 80
0.44649243 0.68868226 0.92294818 255 80 80
0.45063776 0.69456816 0.92093587 255 80 80
0.45074403 0.69465512 0.91925234 255 80 80
0.45085025 0.69474208 0.91756874 255 80 80
0.45268899 0.69731551 0.91572189 255 80 80
0.45279557 0.69740278 0.91403276 255 80 80
0.45116907 0.69500297 0.91251802 255 80 80
0.45127529 0.69508994 0.91083443 255 80 80
0.45138156 0.6951769 0.9091509 255 80 80
0.45033169 0.6936053 0.90759474 255 80 80
0.45043772 0.69369209 0.9059149 255 80 80
0.45054376 0.69377887 0.90423506 255 80 80
0.4506498 0.69386566 0.90255523 255 80 80
0.45075583 0.69395238 0.90087539 255 80 80
0.45201916 0.69569874 0.8990494 255 80 80
0.45096785 0.69412595 0.89751565 255 80 80
0.45107388 0.69421273 0.89583582 255 80 80
0.45233792 0.69595963 0.89399868 255 80 80
0.4524442 0.69604659 0.89231515 255 80 80
0.45255047 0.69613355 0.89063156 255 80 80
0.45265669 0.69622052 0.88894796 255 80 80
0.45276296 0.69630748 0.88726437 255 80 80
0.45286924 0.69639444 0.88558084 255 80 80
0.45297551 0.69648141 0.88389724 255 80 80
0.45308173 0.69656837 0.88221365 255 80 80
0.45492786 0.69914782 0.88024938 255 80 80
0.45503449 0.69923508 0.87856019 255 80 80
0.45514107 0.69932234 0.87687105 255 80 80
0.4552477 0.6994096 0.87518191 255 80 80
0.45535433 0.69949687 0.87349272 255 80 80
0.45546091 0.69958413 0.87180352 255 80 80
0.45672888 0.70133418 0.86990488 255 80 80
0.45683569 0.70142162 0.86821198 255 80 80
0.45984703 0.70566708 0.86597663 255 80 80
0.46111649 0.70741844 0.86405379 255 80 80
0.46296757 0.71000201 0.86201119 255 80 80
0.46423811 0.7117542 0.86007148 255 80 80
0.46318358 0.71017879 0.8585881 255 80 80
0.46329165 0.71026719 0.85687655 255 80 80
0.46339965 0.71035564 0.855165 255 80 80
0.46350771 0.71044403 0.85345346 255 80 80
0.46187019 0.70803529 0.85211211 255 80 80
0.4619779 0.70812345 0.85040617 255 80 80
0.46208555 0.70821154 0.84870023 255 80 80
0.46219325 0.7082997 0.84699428 255 80 80
0.4623009 0.70838779 0.84528834 255 80 80
0.4624086 0.70847595 0.84358233 255 80 80
0.46251625 0.70856404 0.84187645 255 80 80
0.46437186 0.7111513 0.83976114 255 80 80
0.46447992 0.7112397 0.83804959 255 80 80
0.45684803 0.70175582 0.95279121 255 80 80
0.45695573 0.70184392 0.95108527 255 80 80
0.45706338 0.70193201 0.94937932 255 80 80
0.45601767 0.70036852 0.94771129 255 80 80
0.45612508 0.70045644 0.9460091 255 80 80
0.45450175 0.69806641 0.94437492 255 80 80
0.45230061 0.69484967 0.9427765 255 80 80
0.44952136 0.69080603 0.94121945 255 80 80
0.44789553 0.68841392 0.93962443 255 80 80
0.44684643 0.68684769 0.93801045 255 80 80
0.44695181 0.68693399 0.93633991 255 80 80
0.44590193 0.68536705 0.93473715 255 80 80
0.44600713 0.68545318 0.93307036 255 80 80
0.44611233 0.68553925 0.93140358 255 80 80
0.44621754 0.68562537 0.92973679 255 80 80
0.44632274 0.68571144 0.92806995 255 80 80
0.44642794 0.68579757 0.92640316 255 80 80
0.44653314 0.68588364 0.92473638 255 80 80
0.44779533 0.68762428 0.92297578 255 80 80
0.45195085 0.69350195 0.9209637 255 80 80
0.45205706 0.69358891 0.91928011 255 80 80
0.45216334 0.69367588 0.91759658 255 80 80
0.45400637 0.69624573 0.91574979 255 80 80
0.45411301 0.69633299 0.91406065 255 80 80
0.4524821 0.69393677 0.9125458 255 80 80
0.45258838 0.69402373 0.91086227 255 80 80
0.45269465 0.69411069 0.90917867 255 80 80
0.45164186 0.69254148 0.90762252 255 80 80
0.45174789 0.69262826 0.90594268 255 80 80
0.45185393 0.69271499 0.90426284 255 80 80
0.45195991 0.69280177 0.902583 255 80 80
0.45206594 0.69288856 0.90090311 255 80 80
0.45333219 0.69463253 0.89907724 255 80 80
0.45343846 0.69471949 0.89739364 255 80 80
0.45354474 0.69480646 0.89571005 255 80 80
0.45365101 0.69489342 0.89402652 255 80 80
0.45375723 0.69498038 0.89234293 255 80 80
0.4538635 0.69506735 0.89065933 255 80 80
0.45396978 0.69515431 0.88897574 255 80 80
0.45407605 0.69524127 0.88729221 255 80 80
0.45418227 0.69532824 0.88560861 255 80 80
0.45428854 0.6954152 0.88392502 255 80 80
0.45613867 0.69799083 0.88196647 255 80 80
0.4562453 0.6980781 0.88027728 255 80 80
0.45635188 0.69816536 0.87858808 255 80 80
0.45645851 0.69825262 0.87689894 255 80 80
0.45656514 0.69833988 0.87520975 255 80 80
0.45667171 0.69842708 0.87352061 255 80 80
0.45677835 0.69851434 0.87183142 255 80 80
0.45804918 0.70026207 0.86993283 255 80 80
0.45815605 0.70034951 0.86823994 255 80 80
0.46233934 0.70624995 0.86578786 255 80 80
0.46244699 0.70633811 0.86408192 255 80 80
0.46430242 0.70891809 0.86203945 255 80 80
0.46441048 0.70900649 0.8603279 255 80 80
0.46451849 0.70909488 0.85861635 255 80 80
0.46462649 0.70918328 0.8569048 255 80 80
0.46473455 0.70927173 0.85519326 255 80 80
0.46484256 0.70936012 0.85348171 255 80 80
0.46495056 0.70944852 0.85177016 255 80 80
0.46505862 0.70953691 0.85005867 255 80 80
0.46341604 0.70713115 0.84872836 255 80 80
0.46352375 0.7072193 0.84702241 255 80 80
0.46363139 0.7073074 0.84531647 255 80 80
0.4637391 0.70739555 0.84361053 255 80 80
0.46384674 0.70748365 0.84190458 255 80 80
0.46570677 0.71006739 0.83978939 255 80 80
0.46581477 0.71015579 0.83807784 255 80 80
0.45817852 0.70067543 0.95281941 255 80 80
0.45828623 0.70076352 0.95111346 255 80 80
0.45839387 0.70085168 0.94940752 255 80 80
0.45734525 0.69929051 0.94773942 255 80 80
0.45745271 0.69937843 0.94603717 255 80 80
0.45582497 0.69699198 0.94440293 255 80 80
0.45361799 0.69377995 0.9428044 255 80 80
0.45198876 0.69139218 0.94119442 255 80 80
0.44920135 0.68735361 0.93965209 255 80 80
0.44814926 0.6857897 0.93803805 255 80 80
0.4482547 0.68587601 0.93636751 255 80 80
0.44720191 0.68431145 0.93476468 255 80 80
0.44730711 0.68439758 0.9330979 255 80 80
0.44741231 0.68448365 0.93143111 255 80 80
0.44751751 0.68456978 0.92976427 255 80 80
0.44762272 0.68465585 0.92809749 255 80 80
0.44888735 0.68639374 0.92634439 255 80 80
0.44899279 0.68648005 0.92467386 255 80 80
0.4531576 0.69234878 0.92267507 255 80 80
0.45326388 0.69243574 0.92099148 255 80 80
0.45337015 0.6925227 0.91930795 255 80 80
0.45521718 0.69508874 0.91746688 255 80 80
0.45648462 0.6968289 0.91566902 255 80 80
0.45659143 0.69691634 0.91397607 255 80 80
0.45379519 0.69287056 0.91257364 255 80 80
0.45390147 0.69295752 0.91089004 255 80 80
0.45400769 0.69304448 0.90920645 255 80 80
0.45411396 0.69313145 0.90752292 255 80 80
0.45305806 0.69156438 0.90597039 255 80 80
0.45316404 0.69165117 0.90429056 255 80 80
0.45443273 0.69339234 0.9024722 255 80 80
0.454539 0.6934793 0.90078861 255 80 80
0.45638996 0.69604856 0.89888602 255 80 80
0.45649654 0.69613582 0.89719689 255 80 80
0.45660317 0.69622302 0.89550769 255 80 80
0.4567098 0.69631028 0.8938185 255 80 80
0.45681638 0.69639754 0.89212936 255 80 80
0.45692301 0.6964848 0.89044017 255 80 80
0.45702964 0.69657207 0.88875103 255 80 80
0.45713627 0.69665933 0.88706183 255 80 80
0.45724285 0.69674659 0.88537264 255 80 80
0.45734948 0.69683385 0.8836835 255 80 80
0.45745611 0.69692111 0.88199437 255 80 80
0.45756269 0.69700831 0.88030517 255 80 80
0.45766932 0.69709557 0.87861598 255 80 80
0.45777595 0.69718283 0.87692684 255 80 80
0.45904899 0.69892758 0.87503946 255 80 80
0.4591558 0.69901508 0.87334657 255 80 80
0.45926267 0.69910252 0.87165368 255 80 80
0.45936948 0.69918996 0.86996078 255 80 80
0.46064377 0.70093572 0.86805475 255 80 80
0.46250224 0.70351106 0.86603284 255 80 80
0.46377754 0.70525771 0.86411011 255 80 80
0.46563727 0.70783412 0.8620677 255 80 80
0.46574533 0.70792258 0.86035615 255 80 80
0.46585333 0.70801097 0.8586446 255 80 80
0.4659614 0.70809937 0.85693306 255 80 80
0.4660694 0.70818776 0.85522151 255 80 80
0.4661774 0.70827621 0.85351002 255 80 80
0.46628547 0.70836461 0.85179847 255 80 80
0.46639347 0.708453 0.85008693 255 80 80
0.46650147 0.70854139 0.84837538 255 80 80
0.46660954 0.70862985 0.84666383 255 80 80
0.46671754 0.70871824 0.84495229 255 80 80
0.4668256 0.70880663 0.84324074 255 80 80
0.46693361 0.70889509 0.84152919 255 80 80
0.46704161 0.70898348 0.83981764 255 80 80
0.46714967 0.70907187 0.8381061 255 80 80
0.45950907 0.69959503 0.9528476 255 80 80
0.45961672 0.69968313 0.95114166 255 80 80
0.45972443 0.69977129 0.94943571 255 80 80
0.45867288 0.69821244 0.9477675 255 80 80
0.45878029 0.69830042 0.94606531 255 80 80
0.45714825 0.69591749 0.94443095 255 80 80
0.45319557 0.69023895 0.94290578 255 80 80
0.45214164 0.68867832 0.94127488 255 80 80
0.44934672 0.68464547 0.93973613 255 80 80
0.44945216 0.68473178 0.93806565 255 80 80
0.4495576 0.68481809 0.93639511 255 80 80
0.44966304 0.68490434 0.93472457 255 80 80
0.44976848 0.68499064 0.93305409 255 80 80
0.44987392 0.68507695 0.93138355 255 80 80
0.44997936 0.68516326 0.92971301 255 80 80
0.45008481 0.68524951 0.92804247 255 80 80
0.45019025 0.68533581 0.92637199 255 80 80
0.45145816 0.68707168 0.92461145 255 80 80
0.45447069 0.69128257 0.92270285 255 80 80
0.45632142 0.6938445 0.92087311 255 80 80
0.45642799 0.69393176 0.91918397 255 80 80
0.45653462 0.69401896 0.91749477 255 80 80
0.45896864 0.69740736 0.91558832 255 80 80
0.45907575 0.69749498 0.91389167 255 80 80
0.45510823 0.69180435 0.91260141 255 80 80
0.4552145 0.69189131 0.91091788 255 80 80
0.45532078 0.69197828 0.90923429 255 80 80
0.45542699 0.69206524 0.90755069 255 80 80
0.45553327 0.6921522 0.90586716 255 80 80
0.45563954 0.69223917 0.90418357 255 80 80
0.45574582 0.69232613 0.90249997 255 80 80
0.45585209 0.69241309 0.90081638 255 80 80
0.45770735 0.69497877 0.89891392 255 80 80
0.45781398 0.69506603 0.89722478 255 80 80
0.45792061 0.6951533 0.89553559 255 80 80
0.45802724 0.69524056 0.89384639 255 80 80
0.45813382 0.69532782 0.89215726 255 80 80
0.45824045 0.69541508 0.89046806 255 80 80
0.45834708 0.69550228 0.88877892 255 80 80
0.45845366 0.69558954 0.88708973 255 80 80
0.45856029 0.6956768 0.88540053 255 80 80
0.45866692 0.69576406 0.8837114 255 80 80
0.45877349 0.69585133 0.88202226 255 80 80
0.46004874 0.69759315 0.88014615 255 80 80
0.46015561 0.69768059 0.8784532 255 80 80
0.46026242 0.69776803 0.8767603 255 80 80
0.46036929 0.69785547 0.87506741 255 80 80
0.46047616 0.69794291 0.87337452 255 80 80
0.46175283 0.69968599 0.87147605 255 80 80
0.46185994 0.69977361 0.86977941 255 80 80
0.46196705 0.69986123 0.86808276 255 80 80
0.46382987 0.70243305 0.86606097 255 80 80
0.46686417 0.70666182 0.8638075 255 80 80
0.46697217 0.70675021 0.86209595 255 80 80
0.46825147 0.70849538 0.86015642 255 80 80
0.46718824 0.70692706 0.85867286 255 80 80
0.46729624 0.70701545 0.85696131 255 80 80
0.46740431 0.70710385 0.85524976 255 80 80
0.46751231 0.70719224 0.85353827 255 80 80
0.46762031 0.7072807 0.85182673 255 80 80
0.46772838 0.70736909 0.85011518 255 80 80
0.46783638 0.70745748 0.84840363 255 80 80
0.46794438 0.70754588 0.84669209 255 80 80
0.46805245 0.70763433 0.84498054 255 80 80
0.46933407 0.7093814 0.84300375 255 80 80
0.46944231 0.70946997 0.84128845 255 80 80
0.46837652 0.70789957 0.8398459 255 80 80
0.46848452 0.70798796 0.83813435 255 80 80
0.46258169 0.70098054 0.95283592 255 80 80
0.4626897 0.701069 0.95112437 255 80 80
0.46105492 0.69869089 0.94946384 255 80 80
0.46000046 0.69713444 0.94779563 255 80 80
0.45836437 0.69475538 0.94615561 255 80 80
0.45730883 0.69319803 0.94450414 255 80 80
0.4545086 0.68917274 0.94293356 255 80 80
0.45345181 0.68761444 0.94130266 255 80 80
0.45064962 0.68358755 0.93976372 255 80 80
0.45075506 0.68367386 0.93809325 255 80 80
0.4508605 0.68376011 0.93642271 255 80 80
0.45096594 0.68384641 0.93475217 255 80 80
0.45107132 0.68393272 0.93308163 255 80 80
0.45117676 0.68401897 0.93141115 255 80 80
0.4512822 0.68410528 0.92974061 255 80 80
0.45138764 0.68419158 0.92807007 255 80 80
0.4526583 0.68592489 0.92631334 255 80 80
0.45276397 0.68601137 0.92463911 255 80 80
0.45578372 0.69021636 0.92273068 255 80 80
0.4576388 0.69277471 0.920901 255 80 80
0.45774543 0.69286197 0.91921186 255 80 80
0.45785207 0.69294924 0.91752267 255 80 80
0.4620418 0.69880509 0.91545349 255 80 80
0.4621492 0.69889301 0.91375124 255 80 80
0.45642132 0.69073814 0.91262925 255 80 80
0.45827848 0.69329822 0.91076601 255 80 80
0.45838511 0.69338548 0.90907681 255 80 80
0.45849174 0.69347274 0.90738761 255 80 80
0.45859832 0.69356 0.90569848 255 80 80
0.45870495 0.69364727 0.90400934 255 80 80
0.45881158 0.69373453 0.90232015 255 80 80
0.45891815 0.69382179 0.90063095 255 80 80
0.45902479 0.69390905 0.89894181 255 80 80
0.46030062 0.69564658 0.89710307 255 80 80
0.46040744 0.69573402 0.89541012 255 80 80
0.46051431 0.69582146 0.89371729 255 80 80
0.46062112 0.6959089 0.89202434 255 80 80
0.46072799 0.69599634 0.89033145 255 80 80
0.46083486 0.69608378 0.88863856 255 80 80
0.46094167 0.69617122 0.88694566 255 80 80
0.46104854 0.69625866 0.88525277 255 80 80
0.46115535 0.69634616 0.88355988 255 80 80
0.46126223 0.6964336 0.88186693 255 80 80
0.4613691 0.69652104 0.88017404 255 80 80
0.46147591 0.69660848 0.87848115 255 80 80
0.46158278 0.69669592 0.87678826 255 80 80
0.4628619 0.6984362 0.8748973 255 80 80
0.46296901 0.69852388 0.87320065 255 80 80
0.46307606 0.6986115 0.87150407 255 80 80
0.46318316 0.69869912 0.86980742 255 80 80
0.46505004 0.70126706 0.8677913 255 80 80
0.46515745 0.70135498 0.86608911 255 80 80
0.46819901 0.70557785 0.86383575 255 80 80
0.46830708 0.7056663 0.8621242 255 80 80
0.46958923 0.70740908 0.86018473 255 80 80
0.46852309 0.70584309 0.85870111 255 80 80
0.46863115 0.70593154 0.85698956 255 80 80
0.46873915 0.70601994 0.85527807 255 80 80
0.46884716 0.70610833 0.85356653 255 80 80
0.46895522 0.70619673 0.85185498 255 80 80
0.46906322 0.70628518 0.85014343 255 80 80
0.46917123 0.70637357 0.84843189 255 80 80
0.46927929 0.70646197 0.84672034 255 80 80
0.46938729 0.70655036 0.84500879 255 80 80
0.47067183 0.70829511 0.84303206 255 80 80
0.47078013 0.70838374 0.84131682 255 80 80
0.47088838 0.70847231 0.83960152 255 80 80
0.46671879 0.70391166 0.95451885 255 80 80
0.46508092 0.70153826 0.95283771 255 80 80
0.4640246 0.69998503 0.95115262 255 80 80
0.46413261 0.70007348 0.94944113 255 80 80
0.46132809 0.69605643 0.94782376 255 80 80
0.45968765 0.69368088 0.94618362 255 80 80
0.45862913 0.69212592 0.9445321 255 80 80
0.45582169 0.68810654 0.94296139 255 80 80
0.45476198 0.68655062 0.94133037 255 80 80
0.45311868 0.68417269 0.939735 255 80 80
0.45322436 0.68425918 0.93806076 255 80 80
0.45216334 0.68270218 0.9364503 255 80 80
0.45226878 0.68278849 0.93477976 255 80 80
0.45237422 0.68287474 0.93310922 255 80 80
0.45247966 0.68296105 0.93143868 255 80 80
0.4537527 0.68469161 0.92968953 255 80 80
0.45385838 0.68477809 0.92801523 255 80 80
0.45396405 0.68486458 0.926341 255 80 80
0.45582223 0.68741834 0.92453194 255 80 80
0.45884961 0.69161773 0.92261803 255 80 80
0.46012503 0.6933502 0.92083156 255 80 80
0.46315449 0.69755119 0.91888601 255 80 80
0.46618509 0.70175326 0.91692179 255 80 80
0.46746266 0.70348752 0.91510177 255 80 80
0.46757096 0.70357615 0.91338646 255 80 80
0.46943414 0.70613396 0.91149724 255 80 80
0.47246826 0.71033883 0.90947711 255 80 80
0.4708218 0.7079584 0.9079321 255 80 80
0.47093064 0.70804751 0.9062075 255 80 80
0.47103953 0.70813656 0.9044829 255 80 80
0.46002239 0.69257754 0.90403724 255 80 80
0.46012896 0.69266474 0.90234804 255 80 80
0.4602356 0.692752 0.90065885 255 80 80
0.46034223 0.69283926 0.89896971 255 80 80
0.46162093 0.69457448 0.89713097 255 80 80
0.4617278 0.69466192 0.89543808 255 80 80
0.46183461 0.69474936 0.89374518 255 80 80
0.46194148 0.6948368 0.89205229 255 80 80
0.46204829 0.69492424 0.8903594 255 80 80
0.46215516 0.69501168 0.88866651 255 80 80
0.46226203 0.69509912 0.88697362 255 80 80
0.46236885 0.69518656 0.88528073 255 80 80
0.46247572 0.695274 0.88358784 255 80 80
0.46258259 0.6953615 0.88189495 255 80 80
0.46386391 0.69709885 0.88001519 255 80 80
0.46397096 0.69718647 0.87831855 255 80 80
0.46407807 0.69727409 0.87662196 255 80 80
0.46418518 0.69736177 0.87492532 255 80 80
0.46429223 0.69744939 0.87322867 255 80 80
0.46616274 0.70001322 0.87122387 255 80 80
0.46627021 0.70010114 0.86952162 255 80 80
0.46637762 0.70018905 0.86781943 255 80 80
0.46648508 0.70027697 0.86611718 255 80 80
0.46776909 0.70201653 0.86419463 255 80 80
0.46964192 0.70458239 0.86215246 255 80 80
0.46974993 0.70467079 0.86044097 255 80 80
0.46985799 0.70475918 0.85872936 255 80 80
0.46996599 0.70484757 0.85701787 255 80 80
0.470074 0.70493603 0.85530633 255 80 80
0.47018206 0.70502442 0.85359478 255 80 80
0.47029006 0.70511281 0.85188323 255 80 80
0.47039813 0.70520127 0.85017169 255 80 80
0.47050613 0.70528966 0.84846014 255 80 80
0.47061414 0.70537806 0.84674859 255 80 80
0.47190136 0.70712024 0.84477568 255 80 80
0.47200966 0.70720881 0.84306037 255 80 80
0.4721179 0.70729744 0.84134513 255 80 80
0.47222614 0.70738602 0.83962989 255 80 80
0.46806091 0.70282185 0.95454729 255 80 80
0.46641874 0.70045197 0.95286602 255 80 80
0.46652699 0.7005406 0.95115077 255 80 80
0.46663523 0.70062917 0.94943547 255 80 80
0.46674353 0.70071781 0.94772023 255 80 80
0.46101087 0.69260639 0.94621164 255 80 80
0.45994949 0.69105381 0.94456005 255 80 80
0.45713472 0.68704033 0.94298917 255 80 80
0.457241 0.68712729 0.94130558 255 80 80
0.45617813 0.68557352 0.93967831 255 80 80
0.45628417 0.6856603 0.93799841 255 80 80
0.4546358 0.68328536 0.93641418 255 80 80
0.45474148 0.68337184 0.93473989 255 80 80
0.45484716 0.68345833 0.93306565 255 80 80
0.45495284 0.68354481 0.93139142 255 80 80
0.45681429 0.68609416 0.92959917 255 80 80
0.45692033 0.68618095 0.92791933 255 80 80
0.45702636 0.68626773 0.92623949 255 80 80
0.45830363 0.68799698 0.92446983 255 80 80
0.46016705 0.69054794 0.92264593 255 80 80
0.4626171 0.69392097 0.92076224 255 80 80
0.46565402 0.6981163 0.91881311 255 80 80
0.46751994 0.70066935 0.91695005 255 80 80
0.46880049 0.70240122 0.91513008 255 80 80
0.46890873 0.70248985 0.91341484 255 80 80
0.46901697 0.70257843 0.91169953 255 80 80
0.47381771 0.70924312 0.90950572 255 80 80
0.47216684 0.7068662 0.90796059 255 80 80
0.47110212 0.70531082 0.90636307 255 80 80
0.47121078 0.70539969 0.90464222 255 80 80
0.46838415 0.70137662 0.90325773 255 80 80
0.4655565 0.69735247 0.90189195 255 80 80
0.46566391 0.69744039 0.9001897 255 80 80
0.46577138 0.69752836 0.89848745 255 80 80
0.46587878 0.69761628 0.89678526 255 80 80
0.46598625 0.6977042 0.89508307 255 80 80
0.46433049 0.69532323 0.8936162 255 80 80
