ply
format ascii 1.0
comment PCL generated
element vertex 1028
property float x
property float y
property float z
property uchar red
property uchar green
property uchar blue
element camera 0
property float view_px
property float view_py
property float view_pz
property float x_axisx
property float x_axisy
property float x_axisz
property float y_axisx
property float y_axisy
property float y_axisz
property float z_axisx
property float z_axisy
property float z_axisz
property float focal
property float scalex
property float scaley
property float centerx
property float centery
property int viewportx
property int viewporty
property float k1
property float k2
end_header
0.045916799 -0.025014216 0.0030963845 0 255 0
0.045775369 -0.024107087 0.0035930597 0 255 0
0.04579512 -0.0228811 0.0031098924 0 255 0
0.04565344 -0.021972336 0.0036074761 0 255 0
0.0455117 -0.021063618 0.0041049775 0 255 0
0.045530524 -0.019831166 0.0036254104 0 255 0
0.045548804 -0.018595424 0.0031476028 0 255 0
0.045726538 -0.017029397 0.0016960911 0 255 0
0.045903321 -0.015456866 0.00024825078 0 255 0
0.045760084 -0.014538419 0.00075115822 0 255 0
0.045616854 -0.013619908 0.0012540061 0 255 0
0.048906706 -0.054992314 -0.0097669791 0 255 0
0.048766032 -0.054090161 -0.0092729488 0 255 0
0.048625264 -0.053187851 -0.0087789316 0 255 0
0.048651844 -0.052017462 -0.0092924023 0 255 0
0.048510984 -0.051113605 -0.0087975496 0 255 0
0.048203167 -0.050481167 -0.0072969701 0 255 0
0.048062537 -0.049578965 -0.0068029799 0 255 0
0.047755528 -0.048951413 -0.0053052003 0 255 0
0.047615085 -0.048050888 -0.0048120599 0 255 0
0.047640376 -0.046872318 -0.005321004 0 255 0
0.046837665 -0.047088392 -0.00082220917 0 255 0
0.046697937 -0.046192609 -0.00033171944 0 255 0
0.046558332 -0.04529696 0.00015866314 0 255 0
0.04641857 -0.044401269 0.00064912986 0 255 0
0.046278827 -0.043505467 0.0011395528 0 255 0
0.045323826 -0.03604066 0.0040724739 0 255 0
0.045183871 -0.035143293 0.0045638536 0 255 0
0.045043897 -0.034245938 0.0050551896 0 255 0
0.044904038 -0.03334862 0.0055464935 0 255 0
0.044925474 -0.032145672 0.005050899 0 255 0
0.044785302 -0.031246718 0.0055430867 0 255 0
0.044806011 -0.030038878 0.0050500743 0 255 0
0.044665545 -0.029138215 0.0055431807 0 255 0
0.044845961 -0.027613467 0.0040695057 0 255 0
0.04470503 -0.026709601 0.0045643565 0 255 0
0.044883925 -0.02517508 0.0030959912 0 255 0
0.044742465 -0.024267932 0.0035926495 0 255 0
0.044601008 -0.023360871 0.0040893103 0 255 0
0.044459533 -0.022453723 0.0045859804 0 255 0
0.044477001 -0.021224808 0.0041045821 0 255 0
0.044493943 -0.019992601 0.003624948 0 255 0
0.044668715 -0.01843209 0.0021709031 0 255 0
0.044842549 -0.016864952 0.00072028814 0 255 0
0.044857506 -0.015619783 0.00024781999 0 255 0
0.04471425 -0.01470125 0.00075073715 0 255 0
0.044570949 -0.013782755 0.0012536567 0 255 0
0.047738679 -0.054250102 -0.0092733651 0 255 0
0.047597904 -0.053347867 -0.0087793693 0 255 0
0.047788113 -0.051909801 -0.010300251 0 255 0
0.04764694 -0.051004421 -0.0098044258 0 255 0
0.047175869 -0.05064122 -0.0072973915 0 255 0
0.047035098 -0.04973894 -0.006803385 0 255 0
0.046730008 -0.049111135 -0.005305551 0 255 0
0.046589598 -0.048210595 -0.0048124176 0 255 0
0.046121351 -0.04786535 -0.0023150891 0 255 0
0.045981381 -0.04696795 -0.0018237868 0 255 0
0.045678005 -0.046351537 -0.00033214837 0 255 0
0.045538343 -0.045455806 0.00015828654 0 255 0
0.045398623 -0.04456006 0.00064875314 0 255 0
0.045258954 -0.043664321 0.0011391565 0 255 0
0.044302028 -0.036199793 0.0040720981 0 255 0
0.044162109 -0.035302445 0.0045634294 0 255 0
0.044022094 -0.034405071 0.0050547365 0 255 0
0.043882199 -0.033507727 0.0055461125 0 255 0
0.043901864 -0.032305099 0.0050504794 0 255 0
0.043761678 -0.03140609 0.0055426983 0 255 0
0.043780554 -0.030198576 0.0050496631 0 255 0
0.043640096 -0.029297959 0.0055427924 0 255 0
0.043499663 -0.028397346 0.0060358834 0 255 0
0.043517526 -0.027183324 0.0055464902 0 255 0
0.043534853 -0.025966011 0.0050588907 0 255 0
0.043709561 -0.024428835 0.0035922416 0 255 0
0.043568131 -0.023521708 0.0040889056 0 255 0
0.04342664 -0.022614596 0.0045855669 0 255 0
0.043442257 -0.021385947 0.0041041877 0 255 0
0.043300547 -0.020477211 0.0046017612 0 255 0
0.043471906 -0.018918877 0.0031467527 0 255 0
0.043798599 -0.017027535 0.00071991241 0 255 0
0.043811638 -0.015782688 0.00024744909 0 255 0
0.043668389 -0.014864154 0.00075031118 0 255 0
0.043525111 -0.013945656 0.0012532191 0 255 0
0.043381918 -0.013027215 0.0017561396 0 255 0
0.046711393 -0.054410074 -0.0092737768 0 255 0
0.047225945 -0.052443843 -0.012813096 0 255 0
0.046920683 -0.051802754 -0.011308137 0 255 0
0.046615876 -0.051164895 -0.0098048495 0 255 0
0.046474617 -0.05025943 -0.0093090879 0 255 0
0.046007801 -0.049898963 -0.0068037766 0 255 0
0.045704547 -0.049270835 -0.0053059496 0 255 0
0.045564096 -0.048370291 -0.0048128534 0 255 0
0.045099534 -0.04802442 -0.0023154805 0 255 0
0.044959571 -0.047127116 -0.0018241531 0 255 0
0.044658098 -0.046510413 -0.0003325619 0 255 0
0.044518378 -0.045614615 0.0001578987 0 255 0
0.044378672 -0.044718951 0.00064835965 0 255 0
0.044239048 -0.043823216 0.0011387784 0 255 0
0.043176424 -0.033060059 0.0035699233 0 255 0
0.043035969 -0.03215953 0.004063074 0 255 0
0.042895515 -0.03125884 0.0045561525 0 255 0
0.042755086 -0.030358288 0.0050492892 0 255 0
0.042614587 -0.029457655 0.0055423649 0 255 0
0.042474154 -0.028557055 0.006035503 0 255 0
0.042490192 -0.027343325 0.0055461209 0 255 0
0.042505696 -0.026126361 0.0050584804 0 255 0
0.042676695 -0.024589725 0.0035918297 0 255 0
0.042535227 -0.023682563 0.004088507 0 255 0
0.042393733 -0.022775495 0.0045851599 0 255 0
0.042407475 -0.021547066 0.0041037938 0 255 0
0.042265769 -0.020638376 0.0046013584 0 255 0
0.042433474 -0.019080596 0.0031463762 0 255 0
0.042600121 -0.017516335 0.001694907 0 255 0
0.04261161 -0.016273279 0.0012214868 0 255 0
0.042622522 -0.01502701 0.00074995408 0 255 0
0.042479314 -0.014108552 0.001252801 0 255 0
0.042336017 -0.013190052 0.0017557215 0 255 0
0.046332892 -0.053513706 -0.013311063 0 255 0
0.046191227 -0.0526051 -0.012813489 0 255 0
0.045887791 -0.05196365 -0.011308545 0 255 0
0.045746293 -0.051056493 -0.010811827 0 255 0
0.045604821 -0.050149433 -0.010315238 0 255 0
0.044980485 -0.050058961 -0.0068041757 0 255 0
0.04483977 -0.049156707 -0.006310185 0 255 0
0.044538602 -0.048529975 -0.0048132306 0 255 0
0.044077713 -0.048183545 -0.0023159264 0 255 0
0.043777868 -0.047564957 -0.00082338433 0 255 0
0.043638144 -0.046669189 -0.00033296252 0 255 0
0.04349846 -0.045773506 0.000157498 0 255 0
0.043358747 -0.04487779 0.0006479256 0 255 0
0.04321909 -0.043982111 0.0011383726 0 255 0
0.043079436 -0.04308632 0.0016287951 0 255 0
0.0429397 -0.042190596 0.0021192608 0 255 0
0.042800006 -0.041294869 0.0026096632 0 255 0
0.042660318 -0.040399153 0.003100127 0 255 0
0.042678297 -0.039210096 0.0025973518 0 255 0
0.04253836 -0.03831277 0.003088708 0 255 0
0.042150956 -0.03321977 0.0035695494 0 255 0
0.042010482 -0.032319173 0.0040626395 0 255 0
0.041869998 -0.031418554 0.0045557939 0 255 0
0.041729569 -0.030517969 0.0050488594 0 255 0
0.04158916 -0.029617338 0.0055419486 0 255 0
0.041603588 -0.028405555 0.0050517018 0 255 0
0.041462813 -0.027503308 0.0055457014 0 255 0
0.041476514 -0.0262866 0.0050580725 0 255 0
0.041489668 -0.025066704 0.0045722625 0 255 0
0.041502364 -0.023843434 0.0040880912 0 255 0
0.041360889 -0.022936355 0.0045847632 0 255 0
0.04137275 -0.021708256 0.0041033924 0 255 0
0.041384112 -0.020476887 0.0036237729 0 255 0
0.041394975 -0.019242324 0.0031459858 0 255 0
0.04155799 -0.017678581 0.0016944712 0 255 0
0.041567601 -0.016435901 0.0012211241 0 255 0
0.041576695 -0.01518992 0.00074952666 0 255 0
0.041433416 -0.01427145 0.0012524346 0 255 0
0.041441821 -0.013020597 0.00078346109 0 255 0
0.045298189 -0.053674851 -0.013311455 0 255 0
0.045156471 -0.052766152 -0.012813867 0 255 0
0.045014694 -0.05185743 -0.01231635 0 255 0
0.044873048 -0.050948739 -0.011818809 0 255 0
0.0447313 -0.05003994 -0.01132123 0 255 0
0.043953136 -0.050218955 -0.0068045324 0 255 0
0.04365354 -0.049590223 -0.005306704 0 255 0
0.043354537 -0.048964847 -0.0038105869 0 255 0
0.042897608 -0.04861949 -0.0013142279 0 255 0
0.042757925 -0.047723752 -0.00082374224 0 255 0
0.042618241 -0.046828106 -0.00033334247 0 255 0
0.042478513 -0.045932315 0.00015710783 0 255 0
0.042338811 -0.045036584 0.00064752344 0 255 0
0.042199135 -0.044140909 0.001138007 0 255 0
0.042059481 -0.043245215 0.001628404 0 255 0
0.041919772 -0.042349488 0.0021188594 0 255 0
0.041780062 -0.041453756 0.0026092827 0 255 0
0.041640371 -0.040557999 0.0030996918 0 255 0
0.041656546 -0.039369281 0.0025969525 0 255 0
0.041516587 -0.038471885 0.0030882752 0 255 0
0.040844593 -0.03157834 0.004555359 0 255 0
0.040704079 -0.030677693 0.0050484962 0 255 0
0.040563662 -0.029777115 0.005541571 0 255 0
0.040576223 -0.02856558 0.0050513246 0 255 0
0.040435512 -0.02766333 0.0055453386 0 255 0
0.040294811 -0.026761128 0.0060393335 0 255 0
0.040154114 -0.02585892 0.006533301 0 255 0
0.04031745 -0.024321796 0.0050675999 0 255 0
0.040327989 -0.023097215 0.0045843562 0 255 0
0.040338028 -0.021869374 0.00410299 0 255 0
0.040347539 -0.020638335 0.0036233899 0 255 0
0.040356569 -0.019404091 0.0031456009 0 255 0
0.040515792 -0.017840881 0.0016940933 0 255 0
0.040523559 -0.016598491 0.001220689 0 255 0
0.040530857 -0.015352826 0.00074910326 0 255 0
0.040387604 -0.014434326 0.0012520127 0 255 0
0.040244337 -0.013515808 0.0017549356 0 255 0
0.040101111 -0.012597364 0.0022577974 0 255 0
0.04426346 -0.053836018 -0.013311861 0 255 0
0.044121765 -0.052927371 -0.012814282 0 255 0
0.043979988 -0.052018579 -0.012316721 0 255 0
0.043838248 -0.051109858 -0.011819188 0 255 0
0.043696508 -0.050201066 -0.011321632 0 255 0
0.042925823 -0.05037903 -0.0068049841 0 255 0
0.042628109 -0.049749948 -0.0053071263 0 255 0
0.042330872 -0.049124319 -0.0038109915 0 255 0
0.041877657 -0.048778359 -0.0013146051 0 255 0
0.041737936 -0.047882609 -0.00082414388 0 255 0
0.041598309 -0.04698693 -0.00033373869 0 255 0
0.041458618 -0.046091236 0.00015666167 0 255 0
0.041318912 -0.045195498 0.00064713164 0 255 0
0.04117921 -0.044299774 0.0011376011 0 255 0
0.041194562 -0.043117806 0.00063124928 0 255 0
0.041054606 -0.042220399 0.0011225606 0 255 0
0.040914617 -0.041323062 0.001613942 0 255 0
0.04062042 -0.040716812 0.0030993042 0 255 0
0.039678607 -0.030837402 0.0050480729 0 255 0
0.039538201 -0.029936828 0.005541198 0 255 0
0.039548859 -0.028725546 0.0050509158 0 255 0
0.039408151 -0.027823322 0.0055449051 0 255 0
0.039267469 -0.026921105 0.0060388902 0 255 0
0.03912675 -0.026018869 0.0065328814 0 255 0
0.039286353 -0.024482369 0.0050672428 0 255 0
0.039295059 -0.023258068 0.004583945 0 255 0
0.039303269 -0.022030555 0.0041025868 0 255 0
0.03931094 -0.020799773 0.0036229873 0 255 0
0.039318122 -0.01956577 0.0031451609 0 255 0
0.039473679 -0.018003177 0.0016936571 0 255 0
0.039479535 -0.016761098 0.00122031 0 255 0
0.039336607 -0.015844218 0.0017222783 0 255 0
0.0391936 -0.014927356 0.002224338 0 255 0
0.039198514 -0.013678725 0.0017545135 0 255 0
0.039055262 -0.012760265 0.0022573748 0 255 0
0.043086991 -0.05308843 -0.012814683 0 255 0
0.042945243 -0.052179743 -0.012317127 0 255 0
0.042803511 -0.051270995 -0.011819591 0 255 0
0.042661849 -0.050362282 -0.011322021 0 255 0
0.04205383 -0.050267655 -0.007810133 0 255 0
0.041912936 -0.049363751 -0.0073152962 0 255 0
0.041462146 -0.049009085 -0.0048144166 0 255 0
0.041167039 -0.048384748 -0.0033191708 0 255 0
0.041026838 -0.04748575 -0.0028269496 0 255 0
0.040732495 -0.046866279 -0.0013344025 0 255 0
0.040592518 -0.045968898 -0.00084309257 0 255 0
0.0404526 -0.045071576 -0.00035178332 0 255 0
0.040312704 -0.04417425 0.00013952405 0 255 0
0.04017273 -0.043276884 0.00063085015 0 255 0
0.04003277 -0.042379547 0.0011221743 0 255 0
0.03989283 -0.041482188 0.001613545 0 255 0
0.039752897 -0.040584862 0.0021048202 0 255 0
0.039612979 -0.039687578 0.0025961737 0 255 0
0.038545068 -0.025233155 0.0035902797 0 255 0
0.038403679 -0.024326017 0.0040868968 0 255 0
0.038410272 -0.023100458 0.0036046188 0 255 0
0.038268544 -0.022191694 0.0041021891 0 255 0
0.038421877 -0.020639509 0.0026454409 0 255 0
0.038426951 -0.019404115 0.0021685136 0 255 0
0.038431518 -0.018165529 0.0016932848 0 255 0
0.038435601 -0.016923688 0.0012198852 0 255 0
0.038292598 -0.016006814 0.0017219007 0 255 0
0.038149588 -0.015089936 0.0022239112 0 255 0
0.038152676 -0.013841613 0.0017541006 0 255 0
0.038009416 -0.01292312 0.0022570079 0 255 0
0.042361405 -0.052720554 -0.014831705 0 255 0
0.041910492 -0.052340947 -0.01231752 0 255 0
0.041768752 -0.051432133 -0.011820002 0 255 0
0.04162709 -0.050523467 -0.011322422 0 255 0
0.041024663 -0.050427843 -0.0078105447 0 255 0
0.040730428 -0.049796749 -0.0063117775 0 255 0
0.040436652 -0.049168769 -0.0048148138 0 255 0
0.040143427 -0.048544228 -0.0033195594 0 255 0
0.040003195 -0.047645275 -0.0028273428 0 255 0
0.03971073 -0.047025438 -0.0013348684 0 255 0
0.039570805 -0.046128083 -0.00084349327 0 255 0
0.039279036 -0.045513179 0.00064636028 0 255 0
0.03913936 -0.044617467 0.0011367573 0 255 0
0.038999658 -0.043721762 0.0016272347 0 255 0
0.039011031 -0.042538688 0.001121785 0 255 0
0.038871057 -0.041641321 0.0016131154 0 255 0
0.038731106 -0.040743977 0.0021044398 0 255 0
0.038591165 -0.039846618 0.0025957464 0 255 0
0.03765367 -0.026301084 0.0030932135 0 255 0
0.037512217 -0.025394006 0.0035898262 0 255 0
0.037370764 -0.02448689 0.0040865326 0 255 0
0.037375513 -0.023261556 0.0036042235 0 255 0
0.03737976 -0.022033026 0.0031237262 0 255 0
0.037383448 -0.020801231 0.0026450502 0 255 0
0.037386689 -0.019566169 0.0021680645 0 255 0
0.03724419 -0.018652579 0.0026683258 0 255 0
0.037246671 -0.017412622 0.0021940134 0 255 0
0.037103925 -0.0164974 0.0026951027 0 255 0
0.037105635 -0.015252558 0.0022234772 0 255 0
0.037106831 -0.014004516 0.0017536692 0 255 0
0.03696356 -0.013086 0.0022565834 0 255 0
0.04132292 -0.052882168 -0.014832098 0 255 0
0.041180681 -0.051970266 -0.014332746 0 255 0
0.040734008 -0.0515933 -0.011820399 0 255 0
0.04059235 -0.050684609 -0.011322828 0 255 0
0.039843783 -0.050858926 -0.0068062013 0 255 0
0.039551664 -0.050229147 -0.0053083142 0 255 0
0.039411202 -0.049328517 -0.0048152409 0 255 0
0.03927071 -0.048427962 -0.0043221083 0 255 0
0.0391303 -0.047527358 -0.0038290187 0 255 0
0.038839392 -0.046905626 -0.0023355368 0 255 0
0.038548965 -0.046287213 -0.00084384938 0 255 0
0.038259108 -0.045671988 0.00064599683 0 255 0
0.03811942 -0.044776261 0.0011363826 0 255 0
0.037979715 -0.043880537 0.0016268516 0 255 0
0.037989251 -0.042697802 0.0011214248 0 255 0
0.037998185 -0.041511763 0.00061779091 0 255 0
0.036620803 -0.026461976 0.0030927528 0 255 0
0.036479302 -0.025554862 0.0035894651 0 255 0
0.036337871 -0.024647743 0.0040861345 0 255 0
0.036340769 -0.023422759 0.0036038205 0 255 0
0.036343154 -0.022194529 0.0031233323 0 255 0
0.03634499 -0.02096298 0.0026446516 0 255 0
0.036346376 -0.019728214 0.0021676861 0 255 0
0.036203869 -0.018814594 0.0026679267 0 255 0
0.036204528 -0.017574895 0.0021935785 0 255 0
0.036061753 -0.016659683 0.0026947237 0 255 0
0.036061622 -0.015415184 0.0022231119 0 255 0
0.036060959 -0.014167381 0.0017533081 0 255 0
0.035917737 -0.01324887 0.0022561627 0 255 0
0.040284477 -0.05304395 -0.014832554 0 255 0
0.040142257 -0.052131951 -0.01433319 0 255 0
0.039699297 -0.051754445 -0.011820804 0 255 0
0.039557595 -0.050845679 -0.011323203 0 255 0
0.03881643 -0.051018964 -0.0068065608 0 255 0
0.038526088 -0.050388884 -0.0053087482 0 255 0
0.038385712 -0.049488254 -0.0048156055 0 255 0
0.038245253 -0.048587624 -0.0043225107 0 255 0
0.038104795 -0.047687076 -0.0038293852 0 255 0
0.037964329 -0.046786409 -0.0033363074 0 255 0
0.037675548 -0.046166129 -0.0018436909 0 255 0
0.037535321 -0.045267139 -0.0013514559 0 255 0
0.037395146 -0.044368163 -0.00085928635 0 255 0
0.037254933 -0.043469269 -0.00036704817 0 255 0
0.037114758 -0.042570211 0.0001251736 0 255 0
0.03697459 -0.041671269 0.00061735592 0 255 0
0.035587929 -0.026622826 0.0030924026 0 255 0
0.035446439 -0.025715737 0.0035890585 0 255 0
0.035304964 -0.024808601 0.0040857284 0 255 0
0.035306014 -0.023583876 0.0036034253 0 255 0
0.035306584 -0.022355942 0.0031229362 0 255 0
0.035164583 -0.021445569 0.0036213631 0 255 0
0.035022594 -0.020535216 0.0041198395 0 255 0
0.035163641 -0.01897661 0.0026674988 0 255 0
0.035162359 -0.017737228 0.0021931967 0 255 0
0.035019629 -0.016821969 0.002694292 0 255 0
0.035158392 -0.015248768 0.0012499626 0 255 0
0.035015114 -0.014330226 0.0017528804 0 255 0
0.034871854 -0.013411767 0.0022557941 0 255 0
0.034868643 -0.012159396 0.0017886211 0 255 0
0.03909703 -0.053469364 -0.013824639 0 255 0
0.038955037 -0.052559029 -0.013326149 0 255 0
0.038813077 -0.05164865 -0.012827718 0 255 0
0.038671091 -0.050738316 -0.012329239 0 255 0
0.037789103 -0.051179003 -0.0068069603 0 255 0
0.037500624 -0.050548516 -0.0053091059 0 255 0
0.037360232 -0.04964795 -0.0048160376 0 255 0
0.037219759 -0.048747364 -0.0043228893 0 255 0
0.037079319 -0.047846757 -0.0038298033 0 255 0
0.036938854 -0.046946108 -0.0033366811 0 255 0
0.036798391 -0.046045519 -0.0028435939 0 255 0
0.036657967 -0.045144886 -0.0023505101 0 255 0
0.036371496 -0.044527609 -0.00085967872 0 255 0
0.036231283 -0.043628573 -0.00036742538 0 255 0
0.036091104 -0.042729668 0.00012474769 0 255 0
0.035950918 -0.041830689 0.00061697478 0 255 0
0.034555014 -0.026783727 0.0030919986 0 255 0
0.034413576 -0.025876615 0.0035886578 0 255 0
0.034272075 -0.024969511 0.0040853168 0 255 0
0.034271244 -0.023745062 0.0036030225 0 255 0
0.034129549 -0.022836348 0.0041005933 0 255 0
0.034127999 -0.021607019 0.0036209757 0 255 0
0.033986002 -0.020696649 0.0041194567 0 255 0
0.033983681 -0.019462483 0.0036424939 0 255 0
0.033980776 -0.018225009 0.0031673508 0 255 0
0.033838388 -0.017311428 0.0036675325 0 255 0
0.033973567 -0.015740352 0.0022223135 0 255 0
0.033969279 -0.014493108 0.0017524692 0 255 0
0.033826008 -0.013574664 0.0022553755 0 255 0
0.033820897 -0.012322554 0.001788198 0 255 0
0.033677418 -0.011402478 0.0022920233 0 255 0
0.038060438 -0.053630833 -0.013825013 0 255 0
0.037918434 -0.052720424 -0.013326555 0 255 0
0.037776481 -0.051810075 -0.012828119 0 255 0
0.037634537 -0.050899811 -0.012329721 0 255 0
0.036761768 -0.051338963 -0.0068073864 0 255 0
0.036475141 -0.050708327 -0.0053094951 0 255 0
0.036334686 -0.049807664 -0.0048164031 0 255 0
0.036194291 -0.048907038 -0.0043233326 0 255 0
0.036053851 -0.048006527 -0.0038301914 0 255 0
0.035913367 -0.04710586 -0.0033370983 0 255 0
0.035772916 -0.046205238 -0.0028439695 0 255 0
0.035632428 -0.045304716 -0.002350891 0 255 0
0.035347831 -0.044687025 -0.00086002832 0 255 0
0.035207663 -0.043788042 -0.00036786962 0 255 0
0.035067465 -0.042889051 0.00012437633 0 255 0
0.033243004 -0.027568951 0.0050549139 0 255 0
0.033102073 -0.026665084 0.0055497624 0 255 0
0.033100106 -0.025445811 0.0050648344 0 255 0
0.033097692 -0.02422322 0.0045815865 0 255 0
0.033094816 -0.022997472 0.0041001895 0 255 0
0.032953039 -0.02208872 0.0045977612 0 255 0
0.032949451 -0.020858094 0.0041189953 0 255 0
0.032807421 -0.019947724 0.004617488 0 255 0
0.032940488 -0.01838699 0.0031669298 0 255 0
0.032798056 -0.017473446 0.0036671634 0 255 0
0.032792579 -0.016231362 0.0031946406 0 255 0
0.032923408 -0.01465602 0.0017520906 0 255 0
0.032780182 -0.013737569 0.0022549552 0 255 0
0.032773223 -0.012485719 0.00178778 0 255 0
0.032629669 -0.011565621 0.0022916188 0 255 0
0.037023805 -0.053792238 -0.013825438 0 255 0
0.036881857 -0.052881919 -0.013326983 0 255 0
0.036739867 -0.05197157 -0.012828502 0 255 0
0.036597971 -0.051061235 -0.012330081 0 255 0
0.036455929 -0.050150845 -0.011831619 0 255 0
0.035449699 -0.050867967 -0.0053099068 0 255 0
0.035309229 -0.049967412 -0.004816771 0 255 0
0.035168722 -0.049066782 -0.0043236986 0 255 0
0.035028268 -0.048166178 -0.0038306233 0 255 0
0.03488785 -0.047265526 -0.0033374648 0 255 0
0.034747455 -0.046364985 -0.0028443984 0 255 0
0.034606997 -0.045464426 -0.0023512624 0 255 0
0.034466527 -0.044563726 -0.0018581747 0 255 0
0.034326103 -0.043663219 -0.0013650939 0 255 0
0.03249272 -0.028322788 0.0035771157 0 255 0
0.032213792 -0.027729237 0.0050544878 0 255 0
0.032072823 -0.026825354 0.0055493815 0 255 0
0.032069068 -0.025606345 0.0050644334 0 255 0
0.032064799 -0.02438408 0.0045811809 0 255 0
0.032060061 -0.023158628 0.0040997942 0 255 0
0.031918325 -0.022249898 0.0045973812 0 255 0
0.031776633 -0.021341186 0.0050948854 0 255 0
0.031770829 -0.020109154 0.0046170871 0 255 0
0.031764518 -0.018873923 0.0041410606 0 255 0
0.031622306 -0.017961977 0.0046403864 0 255 0
0.031750455 -0.01639368 0.0031942115 0 255 0
0.031877559 -0.014818914 0.0017516707 0 255 0
0.031734314 -0.013900413 0.0022545871 0 255 0
0.031725526 -0.012648895 0.0017874317 0 255 0
0.031581998 -0.011728789 0.0022911914 0 255 0
0.035987243 -0.053953703 -0.013825821 0 255 0
0.035845306 -0.053043339 -0.01332738 0 255 0
0.035703335 -0.05213296 -0.01282892 0 255 0
0.035561349 -0.051222656 -0.012330501 0 255 0
0.035419349 -0.050312303 -0.011832076 0 255 0
0.034424171 -0.051027764 -0.0053102905 0 255 0
0.034283713 -0.050127022 -0.0048171966 0 255 0
0.034143303 -0.0492265 -0.004324072 0 255 0
0.034002848 -0.048325926 -0.0038309926 0 255 0
0.033862371 -0.047425259 -0.0033379027 0 255 0
0.033721928 -0.046524681 -0.0028447872 0 255 0
0.033581484 -0.045624092 -0.0023517008 0 255 0
0.033441015 -0.044723436 -0.0018585413 0 255 0
0.033300556 -0.043822888 -0.0013654606 0 255 0
0.033160131 -0.042922311 -0.00087238709 0 255 0
0.031461693 -0.028483389 0.0035767159 0 255 0
0.031320475 -0.027577879 0.0040725195 0 255 0
0.031314854 -0.02635913 0.0035874518 0 255 0
0.03130877 -0.025137255 0.0031043175 0 255 0
0.031167051 -0.024228523 0.0036018165 0 255 0
0.030890495 -0.023637868 0.0050774375 0 255 0
0.030749004 -0.022730783 0.0055741016 0 255 0
0.030741898 -0.021502292 0.0050944956 0 255 0
0.030600132 -0.020593558 0.0055920579 0 255 0
0.03072614 -0.019035676 0.0041406243 0 255 0
0.030583914 -0.018123681 0.0046399417 0 255 0
0.030708333 -0.016555952 0.0031937771 0 255 0
0.030831724 -0.014981744 0.0017512629 0 255 0
0.030688498 -0.014063321 0.0022541671 0 255 0
0.030677803 -0.012812092 0.0017870072 0 255 0
0.030534323 -0.011892005 0.0022907755 0 255 0
0.030390779 -0.010971868 0.002794601 0 255 0
0.03495064 -0.054115076 -0.013826203 0 255 0
0.03480868 -0.053204779 -0.01332777 0 255 0
0.034525607 -0.052560277 -0.011822778 0 255 0
0.034383867 -0.051651474 -0.011325216 0 255 0
0.034242131 -0.05074276 -0.010827648 0 255 0
0.033539023 -0.050916702 -0.0063145505 0 255 0
0.033258229 -0.050286744 -0.004817572 0 255 0
0.033117805 -0.049386177 -0.0043244804 0 255 0
0.032977358 -0.048485644 -0.0038313561 0 255 0
0.03283691 -0.047584984 -0.0033382759 0 255 0
0.032696467 -0.046684388 -0.0028451823 0 255 0
0.032556001 -0.045783807 -0.0023520752 0 255 0
0.03241555 -0.044883184 -0.0018589755 0 255 0
0.032275088 -0.043982595 -0.0013658352 0 255 0
0.03213466 -0.043082017 -0.00087277789 0 255 0
0.031994201 -0.042181388 -0.00037966212 0 255 0
0.031853735 -0.041280806 0.00011347557 0 255 0
0.030564886 -0.028334251 0.0025937199 0 255 0
0.030423457 -0.027427174 0.0030903732 0 255 0
0.030281991 -0.026520012 0.0035870441 0 255 0
0.03014051 -0.025612922 0.0040837089 0 255 0
0.02999909 -0.024705866 0.0045803632 0 255 0
0.029857587 -0.023798712 0.0050770231 0 255 0
0.029716097 -0.022891648 0.0055736899 0 255 0
0.029707143 -0.021663457 0.0050940895 0 255 0
0.029565407 -0.020754747 0.0055916538 0 255 0
0.029687684 -0.019197406 0.0041402266 0 255 0
0.029677104 -0.017959449 0.0036659597 0 255 0
0.029797647 -0.016390707 0.0022206595 0 255 0
0.029785853 -0.015144694 0.0017508855 0 255 0
0.029642634 -0.014226184 0.0022537431 0 255 0
0.029499384 -0.013307719 0.0027566589 0 255 0
0.0294866 -0.012055187 0.0022904214 0 255 0
0.029343091 -0.011135022 0.0027941903 0 255 0
0.033634529 -0.054801062 -0.011810018 0 255 0
0.033493049 -0.053894006 -0.011313278 0 255 0
0.033490874 -0.052721336 -0.011823186 0 255 0
0.033210121 -0.052079741 -0.010319954 0 255 0
0.033068683 -0.051172681 -0.0098233046 0 255 0
0.032927204 -0.050265651 -0.009326648 0 255 0
0.032509282 -0.049902588 -0.0068239872 0 255 0
0.032230344 -0.04927231 -0.0053269938 0 255 0
0.032089557 -0.048370082 -0.0048329472 0 255 0
0.031948898 -0.047467858 -0.0043389611 0 255 0
0.031670954 -0.04684411 -0.0028455581 0 255 0
0.031530548 -0.04594354 -0.0023524752 0 255 0
0.031390063 -0.045042884 -0.0018593484 0 255 0
0.031249622 -0.04414231 -0.0013662839 0 255 0
0.031109137 -0.043241762 -0.00087314739 0 255 0
0.030968653 -0.042341061 -0.00038003444 0 255 0
0.030828232 -0.041440491 0.00011304585 0 255 0
0.03068779 -0.040539928 0.00060615619 0 255 0
0.029126234 -0.028210064 0.0050533009 0 255 0
0.028985266 -0.027306201 0.0055481964 0 255 0
0.029107651 -0.025773827 0.0040833019 0 255 0
0.02883479 -0.025182659 0.0055590183 0 255 0
0.028693497 -0.024277138 0.006054821 0 255 0
0.028683217 -0.023052515 0.0055733449 0 255 0
0.028672382 -0.021824589 0.0050936919 0 255 0
0.028530685 -0.020915885 0.0055912635 0 255 0
0.028649244 -0.01935913 0.004139842 0 255 0
0.028636854 -0.018121466 0.0036655236 0 255 0
0.028753644 -0.016553346 0.0022202907 0 255 0
0.028740013 -0.015307502 0.001750474 0 255 0
0.028596735 -0.014389063 0.0022533785 0 255 0
0.028453523 -0.013470612 0.0027562373 0 255 0
0.028310282 -0.01255212 0.0032591587 0 255 0
0.028295422 -0.011298188 0.0027937707 0 255 0
0.032460179 -0.054054845 -0.011313702 0 255 0
0.032318681 -0.053147752 -0.010817047 0 255 0
0.032177214 -0.052240614 -0.010320373 0 255 0
0.032035802 -0.051333524 -0.0098237107 0 255 0
0.031894349 -0.05042645 -0.0093270456 0 255 0
0.031616427 -0.049791005 -0.0078273332 0 255 0
0.031339105 -0.049158875 -0.0063294834 0 255 0
0.031198112 -0.048255086 -0.0058345837 0 255 0
0.030921562 -0.047627814 -0.0043393741 0 255 0
0.030645479 -0.047003791 -0.00284599 0 255 0
0.030504992 -0.046103291 -0.0023528552 0 255 0
0.030364575 -0.045202669 -0.0018597811 0 255 0
0.030224122 -0.044302031 -0.0013666371 0 255 0
0.030083667 -0.043401439 -0.00087355194 0 255 0
0.029943198 -0.042500872 -0.00038039646 0 255 0
0.029802775 -0.041600212 0.00011268121 0 255 0
0.029662324 -0.040699612 0.00060574419 0 255 0
0.029521858 -0.039799016 0.0010988929 0 255 0
0.028097043 -0.028370384 0.005052893 0 255 0
0.027956059 -0.027466513 0.0055477787 0 255 0
0.028074728 -0.025934668 0.0040829498 0 255 0
0.027803734 -0.025343185 0.0055586034 0 255 0
0.027662501 -0.024437774 0.0060544135 0 255 0
0.027650328 -0.023213372 0.0055729374 0 255 0
0.027637666 -0.021985766 0.0050932923 0 255 0
0.027624477 -0.020754954 0.0046154591 0 255 0
0.027610762 -0.019520853 0.0041394397 0 255 0
0.02746853 -0.018608864 0.004638779 0 255 0
0.027454093 -0.017369913 0.0041653877 0 255 0
0.027439147 -0.016127674 0.0036936842 0 255 0
0.027423669 -0.014882206 0.0032238686 0 255 0
0.027280686 -0.01396532 0.0037258822 0 255 0
0.02726445 -0.012714954 0.0032587328 0 255 0
0.031427305 -0.05421577 -0.011314115 0 255 0
0.0312858 -0.053308625 -0.010817452 0 255 0
0.030873708 -0.052934639 -0.0083093829 0 255 0
0.030732799 -0.052030746 -0.0078145415 0 255 0
0.03072661 -0.050857145 -0.0083234534 0 255 0
0.030450897 -0.050223097 -0.0068247742 0 255 0
0.030175628 -0.049592245 -0.005327771 0 255 0
0.030034916 -0.048690096 -0.0048337299 0 255 0
0.029760469 -0.048064139 -0.0033395055 0 255 0
0.029619977 -0.04716352 -0.0028463632 0 255 0
0.029479552 -0.046262894 -0.0023532901 0 255 0
0.029339084 -0.045362383 -0.0018601407 0 255 0
0.029198658 -0.044461742 -0.0013670409 0 255 0
0.029058127 -0.043561108 -0.0008739371 0 255 0
0.028917735 -0.042660568 -0.00038085255 0 255 0
0.028777229 -0.041759923 0.00011228709 0 255 0
0.028505076 -0.041148651 0.001598632 0 255 0
0.02836486 -0.040249657 0.0020908532 0 255 0
0.028224682 -0.039350718 0.0025830769 0 255 0
0.028084425 -0.038451742 0.0030753305 0 255 0
0.027196312 -0.028220234 0.0040708622 0 255 0
0.027055075 -0.027314736 0.0045666816 0 255 0
0.027041854 -0.0260955 0.0040824953 0 255 0
0.026900344 -0.025188424 0.0045792107 0 255 0
0.026758911 -0.024281336 0.0050758803 0 255 0
0.026744634 -0.023055688 0.0045953728 0 255 0
0.026602922 -0.022146959 0.0050928988 0 255 0
0.026587866 -0.0209164 0.0046150638 0 255 0
0.026572334 -0.019682579 0.0041390606 0 255 0
0.02643011 -0.018770631 0.0046383869 0 255 0
0.02641377 -0.017531928 0.0041649956 0 255 0
0.026396981 -0.016289989 0.0036933138 0 255 0
0.026379701 -0.015044795 0.0032234555 0 255 0
0.026236676 -0.014127935 0.0037255061 0 255 0
0.026218567 -0.012877868 0.0032583657 0 255 0
0.030394377 -0.054376662 -0.011314502 0 255 0
0.030252911 -0.053469509 -0.010817853 0 255 0
0.029844541 -0.053094938 -0.0083097927 0 255 0
0.029703598 -0.052191049 -0.0078149037 0 255 0
0.029695537 -0.051017679 -0.0083238669 0 255 0
0.029421665 -0.050383344 -0.0068251602 0 255 0
0.029148282 -0.049752232 -0.0053281197 0 255 0
0.029007576 -0.048850026 -0.0048341546 0 255 0
0.028734962 -0.048223898 -0.0033398662 0 255 0
0.028594505 -0.047323231 -0.0028468007 0 255 0
0.028454032 -0.046422645 -0.0023536582 0 255 0
0.028313588 -0.045522075 -0.0018605567 0 255 0
0.028173143 -0.044621438 -0.0013674288 0 255 0
0.0280327 -0.043720879 -0.00087435963 0 255 0
0.027892284 -0.042820305 -0.00038126405 0 255 0
0.027621653 -0.042207062 0.0011060087 0 255 0
0.027481444 -0.041308101 0.0015982478 0 255 0
0.02734126 -0.040409137 0.0020904611 0 255 0
0.02720104 -0.039510213 0.0025826979 0 255 0
0.027060851 -0.038611162 0.0030748723 0 255 0
0.026920618 -0.037712175 0.0035671047 0 255 0
0.026165279 -0.028380778 0.0040704682 0 255 0
0.026024051 -0.027475351 0.0045662727 0 255 0
0.025882844 -0.02656984 0.0050620246 0 255 0
0.025741642 -0.025664367 0.0055578309 0 255 0
0.025600431 -0.024758918 0.0060535925 0 255 0
0.025584515 -0.02353508 0.0055721309 0 255 0
0.025568202 -0.022308074 0.0050924956 0 255 0
0.025426436 -0.021399338 0.0055900668 0 255 0
0.025409307 -0.020167474 0.0051130969 0 255 0
0.025391646 -0.018932279 0.0046379627 0 255 0
0.025373504 -0.017693926 0.0041645654 0 255 0
0.025478661 -0.016124252 0.0027210638 0 255 0
0.025335673 -0.015207382 0.0032230758 0 255 0
0.025192691 -0.014290517 0.0037250775 0 255 0
0.02517274 -0.013040764 0.0032579429 0 255 0
0.02909725 -0.055062927 -0.0092999656 0 255 0
0.028956344 -0.054159045 -0.0088051073 0 255 0
0.028815357 -0.053255204 -0.0083102109 0 255 0
0.028674429 -0.052351315 -0.007815293 0 255 0
0.028664511 -0.05117828 -0.0083242767 0 255 0
0.028392483 -0.050543699 -0.0068255709 0 255 0
0.028251499 -0.049639776 -0.0063306759 0 255 0
0.02798029 -0.049010064 -0.0048345709 0 255 0
0.02770948 -0.048383579 -0.0033402583 0 255 0
0.02756902 -0.047482919 -0.0028471493 0 255 0
0.027428571 -0.046582326 -0.0023540694 0 255 0
0.027288089 -0.04568176 -0.0018609592 0 255 0
0.027147662 -0.044781141 -0.0013678508 0 255 0
0.027007192 -0.043880563 -0.00087471877 0 255 0
0.026866745 -0.042979974 -0.00038164196 0 255 0
0.026469672 -0.042653609 0.0020997212 0 255 0
0.026329756 -0.041756265 0.0025910402 0 255 0
0.026189793 -0.040858917 0.0030823639 0 255 0
0.026049867 -0.039961569 0.0035736952 0 255 0
0.025909932 -0.039064221 0.004065027 0 255 0
0.025769968 -0.038166862 0.0045563248 0 255 0
0.025630042 -0.037269488 0.0050476422 0 255 0
0.025490113 -0.036372181 0.0055389619 0 255 0
0.025134213 -0.028541362 0.0040701176 0 255 0
0.024993008 -0.027635871 0.0045658648 0 255 0
0.024851793 -0.026730444 0.0050616693 0 255 0
0.024710581 -0.025824945 0.0055574235 0 255 0
0.024569388 -0.024919454 0.0060531725 0 255 0
0.024551651 -0.023695959 0.0055717221 0 255 0
0.024410188 -0.022788871 0.0060683833 0 255 0
0.024391726 -0.021560531 0.0055896644 0 255 0
0.024372714 -0.020328891 0.0051127099 0 255 0
0.024353223 -0.019094067 0.004637565 0 255 0
0.02433319 -0.017855946 0.0041641872 0 255 0
0.024312697 -0.01661459 0.0036925036 0 255 0
0.024291677 -0.015369962 0.0032226562 0 255 0
0.024148703 -0.014453099 0.0037246575 0 255 0
0.02412691 -0.013203606 0.0032575286 0 255 0
0.027927155 -0.054319315 -0.0088054705 0 255 0
0.027786138 -0.05341544 -0.008310576 0 255 0
0.027645208 -0.052511606 -0.0078157214 0 255 0
0.027504243 -0.051607754 -0.007320812 0 255 0
0.027363297 -0.050704021 -0.0068259472 0 255 0
0.027222367 -0.049800139 -0.0063310885 0 255 0
0.026952881 -0.049170025 -0.004834923 0 255 0
0.026812218 -0.048267893 -0.0043409695 0 255 0
0.026543504 -0.047642678 -0.0028475455 0 255 0
0.026403096 -0.046742059 -0.0023544612 0 255 0
0.026262643 -0.045841459 -0.0018613737 0 255 0
0.02612217 -0.044940889 -0.0013682379 0 255 0
0.025981702 -0.044040222 -0.00087515695 0 255 0
0.025714496 -0.043424819 0.00061303983 0 255 0
0.025447877 -0.042812753 0.0020992861 0 255 0
0.02530797 -0.041915428 0.002590612 0 255 0
0.025168035 -0.041018069 0.0030819778 0 255 0
0.025028057 -0.04012068 0.003573301 0 255 0
0.024888134 -0.039223313 0.004064627 0 255 0
0.024748188 -0.038325973 0.0045559513 0 255 0
0.024608266 -0.037428644 0.0050472715 0 255 0
0.024468288 -0.036531333 0.0055385823 0 255 0
0.023998108 -0.030223312 0.0055389302 0 255 0
0.023857428 -0.029321095 0.0060329139 0 255 0
0.023716703 -0.028418876 0.0065269009 0 255 0
0.023698362 -0.027203782 0.0060410742 0 255 0
0.023557438 -0.026299974 0.0065359739 0 255 0
0.023538357 -0.025080046 0.006052779 0 255 0
0.023518762 -0.023856796 0.005571322 0 255 0
0.023377303 -0.022949737 0.0060679889 0 255 0
0.023356955 -0.021721626 0.0055892779 0 255 0
0.023215225 -0.020812925 0.0060868352 0 255 0
0.023194117 -0.019579979 0.0056107934 0 255 0
0.023172531 -0.01834383 0.0051365057 0 255 0
0.023270562 -0.016776927 0.0036920782 0 255 0
0.023247691 -0.015532556 0.0032222825 0 255 0
0.023104697 -0.014615751 0.0037242821 0 255 0
0.023081038 -0.013366517 0.0032571671 0 255 0
0.026897928 -0.05447964 -0.008805885 0 255 0
0.026629066 -0.053841181 -0.0073053259 0 255 0
0.026488373 -0.052938994 -0.0068113152 0 255 0
0.026475048 -0.051768072 -0.0073212422 0 255 0
0.026334094 -0.050864216 -0.0068263384 0 255 0
0.026193144 -0.049960408 -0.0063314312 0 255 0
0.025925582 -0.049330007 -0.0048353602 0 255 0
0.025784865 -0.048427839 -0.0043413783 0 255 0
0.025518011 -0.047802381 -0.0028479639 0 255 0
0.025377579 -0.046901789 -0.0023548142 0 255 0
0.025237132 -0.046001159 -0.0018617449 0 255 0
0.025096698 -0.045100581 -0.0013686625 0 255 0
0.024956241 -0.044200007 -0.00087552622 0 255 0
0.024690926 -0.043584339 0.00061259855 0 255 0
0.024550684 -0.042685334 0.0011048408 0 255 0
0.024286151 -0.042074513 0.0025902365 0 255 0
0.024146244 -0.041177176 0.003081542 0 255 0
0.024006287 -0.040279787 0.0035728756 0 255 0
0.023866298 -0.039382476 0.0040642438 0 255 0
0.023726402 -0.038485121 0.0045555541 0 255 0
0.023586456 -0.037587751 0.0050468831 0 255 0
0.023446536 -0.036690451 0.0055382 0 255 0
0.023306556 -0.035793088 0.0060295258 0 255 0
0.022970753 -0.030383294 0.005538566 0 255 0
0.022830086 -0.029481113 0.0060325535 0 255 0
0.022689374 -0.028578909 0.0065265363 0 255 0
0.022548653 -0.027676661 0.0070205373 0 255 0
0.022528227 -0.026460247 0.0065355636 0 255 0
0.022507273 -0.025240667 0.0060524042 0 255 0
0.022485895 -0.02401774 0.0055709062 0 255 0
0.022344414 -0.023110569 0.0060675736 0 255 0
0.022322215 -0.02188281 0.0055888705 0 255 0
0.022180518 -0.020974107 0.0060864342 0 255 0
0.022157554 -0.019741414 0.0056103519 0 255 0
0.022134129 -0.018505558 0.0051360689 0 255 0
0.022228388 -0.016939186 0.0036916872 0 255 0
0.022203678 -0.015695134 0.0032218574 0 255 0
0.022060676 -0.014778276 0.0037238584 0 255 0
0.022035167 -0.013529359 0.003256741 0 255 0
0.025742473 -0.054903392 -0.0077997274 0 255 0
0.025601761 -0.05400119 -0.007305739 0 255 0
0.025460999 -0.05309891 -0.0068117338 0 255 0
0.025320381 -0.052196704 -0.006317738 0 255 0
0.025179638 -0.051294517 -0.0058237072 0 255 0
0.025038913 -0.050392289 -0.0053297249 0 255 0
0.024898211 -0.049490031 -0.0048357313 0 255 0
0.024757529 -0.048587874 -0.004341729 0 255 0
0.024616808 -0.047685619 -0.003847742 0 255 0
0.0244761 -0.046783429 -0.0033537599 0 255 0
0.024211619 -0.046160903 -0.0018621013 0 255 0
0.024071217 -0.045260284 -0.0013690337 0 255 0
0.023930751 -0.044359688 -0.00087595463 0 255 0
0.02366728 -0.043743704 0.00061222853 0 255 0
0.023527047 -0.042844705 0.001104463 0 255 0
0.023264395 -0.042233661 0.0025898579 0 255 0
0.023124471 -0.041336332 0.0030811769 0 255 0
0.022984503 -0.040438954 0.0035724852 0 255 0
0.022844547 -0.039541587 0.0040638051 0 255 0
0.022704601 -0.038644232 0.004555128 0 255 0
0.022564678 -0.037746925 0.0050465069 0 255 0
0.022424735 -0.036849633 0.0055378238 0 255 0
0.02228478 -0.035952207 0.0060291355 0 255 0
0.022485729 -0.032947477 0.0030709612 0 255 0
0.021943428 -0.030543279 0.0055381493 0 255 0
0.021802718 -0.02964115 0.0060321712 0 255 0
0.021661982 -0.02873886 0.0065261773 0 255 0
0.021521287 -0.027836643 0.0070201657 0 255 0
0.021499043 -0.026620537 0.006535151 0 255 0
0.021476256 -0.025401158 0.0060520014 0 255 0
0.021452995 -0.024178581 0.0055705043 0 255 0
0.021311527 -0.02327143 0.0060671801 0 255 0
0.021287492 -0.022043951 0.0055884779 0 255 0
0.021145741 -0.021135224 0.0060860477 0 255 0
0.021120977 -0.019902857 0.0056099473 0 255 0
0.02109565 -0.018667256 0.0051356764 0 255 0
0.021186234 -0.017101504 0.0036913084 0 255 0
0.021159664 -0.015857778 0.0032214704 0 255 0
0.021132592 -0.01461077 0.002753403 0 255 0
0.021220669 -0.013028725 0.0013179763 0 255 0
0.02457441 -0.054161157 -0.0073061055 0 255 0
0.024433684 -0.053258933 -0.0068121003 0 255 0
0.02429302 -0.052356746 -0.006318124 0 255 0
0.02415227 -0.051454522 -0.0058241091 0 255 0
0.024011601 -0.050552245 -0.0053301342 0 255 0
0.023870928 -0.049650095 -0.0048361593 0 255 0
0.023730172 -0.048747815 -0.0043421583 0 255 0
0.023589468 -0.047845628 -0.0038481567 0 255 0
0.02344876 -0.046943411 -0.0033541704 0 255 0
0.02318619 -0.046320628 -0.0018625555 0 255 0
0.023045711 -0.045420062 -0.001369403 0 255 0
0.022905249 -0.044519383 -0.00087632076 0 255 0
0.022764854 -0.043618832 -0.00038323348 0 255 0
0.022624353 -0.042718187 0.00010991067 0 255 0
0.022363221 -0.04210519 0.0015962484 0 255 0
0.022223033 -0.041206177 0.002088492 0 255 0
0.022082835 -0.040307298 0.0025807167 0 255 0
0.021942655 -0.039408319 0.0030729475 0 255 0
0.02180242 -0.038509224 0.0035651147 0 255 0
0.021662265 -0.037610367 0.0040573324 0 255 0
0.021522056 -0.036711365 0.0045495639 0 255 0
0.02150074 -0.035513431 0.0040547187 0 255 0
0.021360278 -0.034612831 0.0045478535 0 255 0
0.021456541 -0.033107787 0.003070602 0 255 0
0.02107935 -0.032811552 0.0055340743 0 255 0
0.020938918 -0.031910967 0.0060271546 0 255 0
0.020798495 -0.031010436 0.0065202424 0 255 0
0.020658026 -0.030109799 0.0070133805 0 255 0
0.020751752 -0.028588526 0.0055449908 0 255 0
0.020610807 -0.027684687 0.0060398909 0 255 0
0.020586411 -0.02646723 0.0055558425 0 255 0
0.020561561 -0.025246514 0.0050734528 0 255 0
0.020536158 -0.024022566 0.0045929807 0 255 0
0.020394463 -0.023113847 0.0050905044 0 255 0
0.020252701 -0.022205098 0.0055880705 0 255 0
0.020111015 -0.021296415 0.006085638 0 255 0
0.02019942 -0.019740945 0.0046359589 0 255 0
0.020172007 -0.018504046 0.0041625337 0 255 0
0.020258673 -0.016937235 0.0027190438 0 255 0
0.020229984 -0.015692104 0.0022501308 0 255 0
0.020086717 -0.01477361 0.0027530456 0 255 0
0.02017108 -0.013192233 0.001317616 0 255 0
0.023547027 -0.054321103 -0.0073065199 0 255 0
0.02340636 -0.053418957 -0.006812539 0 255 0
0.023387482 -0.052248947 -0.0073224278 0 255 0
0.02324654 -0.051345106 -0.0068275449 0 255 0
0.023105569 -0.05044122 -0.0063326373 0 255 0
0.022964602 -0.049537405 -0.0058377273 0 255 0
0.022823663 -0.048633501 -0.0053428644 0 255 0
0.022682738 -0.047729712 -0.0048479931 0 255 0
0.022421431 -0.047103405 -0.003354548 0 255 0
0.022160714 -0.046480287 -0.0018629623 0 255 0
0.022020228 -0.045579683 -0.0013698055 0 255 0
0.021879746 -0.044679087 -0.00087668304 0 255 0
0.021739291 -0.043778524 -0.0003836056 0 255 0
0.021479804 -0.04316362 0.0011036552 0 255 0
0.021339595 -0.042264666 0.0015958898 0 255 0
0.021199407 -0.04136565 0.0020881207 0 255 0
0.021059174 -0.040466681 0.0025803405 0 255 0
0.020919021 -0.039567664 0.0030725119 0 255 0
0.02077879 -0.038668718 0.0035647352 0 255 0
0.020638632 -0.03776975 0.0040569669 0 255 0
0.020498415 -0.036870822 0.0045491275 0 255 0
0.02047522 -0.035673145 0.0040543363 0 255 0
0.020334799 -0.034772504 0.0045474367 0 255 0
0.020427359 -0.033268064 0.0030701782 0 255 0
0.020053914 -0.032971315 0.0055336473 0 255 0
0.019913424 -0.032070711 0.006026797 0 255 0
0.019773018 -0.031170163 0.0065198634 0 255 0
0.019632524 -0.0302695 0.0070129465 0 255 0
0.019607341 -0.02905889 0.0065253247 0 255 0
0.019581614 -0.027844977 0.0060394797 0 255 0
0.019555388 -0.026627837 0.0055554332 0 255 0
0.019414166 -0.025722317 0.0060511907 0 255 0
0.019501431 -0.024183726 0.0045925863 0 255 0
0.019359715 -0.023275025 0.0050901016 0 255 0
0.019331714 -0.022046447 0.004612261 0 255 0
0.019189764 -0.021136129 0.0051106862 0 255 0
0.01916098 -0.019902712 0.0046355664 0 255 0
0.01924471 -0.018341331 0.0031893505 0 255 0
0.019214675 -0.017099814 0.0027186167 0 255 0
0.019071683 -0.01618295 0.0032206899 0 255 0
0.019040886 -0.014936534 0.00275262 0 255 0
0.019121597 -0.01335564 0.0013171576 0 255 0
0.022519756 -0.054481216 -0.0073069194 0 255 0
0.022499271 -0.053313132 -0.0078177163 0 255 0
0.02235828 -0.052409243 -0.007322805 0 255 0
0.022217343 -0.051505353 -0.0068279444 0 255 0
0.022076393 -0.050601546 -0.0063330643 0 255 0
0.021935403 -0.049697649 -0.0058381557 0 255 0
0.021794504 -0.048793804 -0.0053433087 0 255 0
0.021653527 -0.047889914 -0.0048484104 0 255 0
0.02139413 -0.047263376 -0.003354948 0 255 0
0.021135189 -0.046640038 -0.0018633353 0 255 0
0.020994717 -0.04573942 -0.0013701887 0 255 0
0.0208543 -0.044838835 -0.00087710319 0 255 0
0.020713888 -0.043938275 -0.00038404149 0 255 0
0.020456173 -0.043323018 0.0011032803 0 255 0
0.020315956 -0.042424034 0.0015954997 0 255 0
0.020175757 -0.041525081 0.0020877211 0 255 0
0.020035557 -0.040626112 0.0025798976 0 255 0
0.019895373 -0.039727118 0.0030721319 0 255 0
0.019755166 -0.03882812 0.0035643608 0 255 0
0.019614989 -0.0379292 0.0040565408 0 255 0
0.019590251 -0.036733456 0.0035608485 0 255 0
0.01944978 -0.035832822 0.0040539182 0 255 0
0.019309297 -0.0349322 0.0045470693 0 255 0
0.019283535 -0.033730056 0.0040549519 0 255 0
0.019142834 -0.032827731 0.0045489501 0 255 0
0.019002143 -0.03192554 0.0050429422 0 255 0
0.018747497 -0.031329866 0.0065194955 0 255 0
0.018607056 -0.030429225 0.0070125763 0 255 0
0.018579969 -0.029218853 0.0065249661 0 255 0
0.01855243 -0.028005254 0.0060390574 0 255 0
0.018411459 -0.027101422 0.006533945 0 255 0
0.018383145 -0.025882937 0.0060508279 0 255 0
0.01835433 -0.024661181 0.005569296 0 255 0
0.018324971 -0.02343614 0.0050897035 0 255 0
0.018295124 -0.022207912 0.0046118717 0 255 0
0.018153165 -0.021297563 0.005110289 0 255 0
0.018122535 -0.020064458 0.0046351789 0 255 0
0.018091416 -0.018828068 0.0041617691 0 255 0
0.018170679 -0.017262433 0.002718244 0 255 0
0.01802768 -0.016345536 0.0032202546 0 255 0
0.017995067 -0.015099436 0.0027521963 0 255 0
0.017851805 -0.014180903 0.0032551191 0 255 0
0.017818404 -0.012929913 0.0027897302 0 255 0
0.021611024 -0.054377273 -0.0083129648 0 255 0
0.021447254 -0.05230232 -0.0083270939 0 255 0
0.021306021 -0.051396824 -0.0078312913 0 255 0
0.021164814 -0.050491367 -0.0073355283 0 255 0
0.021023596 -0.049585927 -0.0068397233 0 255 0
0.0208824 -0.048680447 -0.0063439622 0 255 0
0.020624302 -0.048050277 -0.0048487666 0 255 0
0.020483371 -0.047146384 -0.004353927 0 255 0
0.020226022 -0.046521213 -0.0028613433 0 255 0
0.020085357 -0.045618899 -0.002367347 0 255 0
0.019944638 -0.044716738 -0.0018733662 0 255 0
0.019688312 -0.044097945 -0.0003844063 0 255 0
0.019547885 -0.043197308 0.00010867725 0 255 0
0.019292327 -0.042583402 0.0015950667 0 255 0
0.019152142 -0.041684549 0.002087299 0 255 0
0.019011928 -0.040785532 0.002579527 0 255 0
0.018871749 -0.039886575 0.0030717601 0 255 0
0.018731546 -0.038987562 0.0035639261 0 255 0
0.018591339 -0.038088594 0.0040561664 0 255 0
0.018564748 -0.036893152 0.0035604085 0 255 0
0.018424269 -0.035992585 0.0040535512 0 255 0
0.01828384 -0.035091903 0.0045466339 0 255 0
0.018256165 -0.033890013 0.0040545817 0 255 0
0.018115457 -0.032987744 0.0045485795 0 255 0
0.017974736 -0.032085538 0.0050425772 0 255 0
0.017722029 -0.03148957 0.0065190839 0 255 0
0.017581576 -0.030588875 0.0070121656 0 255 0
0.017552631 -0.0293789 0.0065245447 0 255 0
0.017523233 -0.028165562 0.0060386998 0 255 0
0.017382259 -0.02726168 0.006533585 0 255 0
0.017352086 -0.026043493 0.0060504205 0 255 0
0.017321419 -0.024822032 0.005568943 0 255 0
0.017290259 -0.023597315 0.0050893053 0 255 0
0.017258542 -0.022369362 0.0046114698 0 255 0
0.017116554 -0.021458982 0.0051098894 0 255 0
0.017084124 -0.020226156 0.0046347403 0 255 0
0.017051114 -0.018990088 0.004161336 0 255 0
0.017017666 -0.017750701 0.0036897028 0 255 0
0.016983688 -0.016508127 0.0032198387 0 255 0
0.01694921 -0.015262297 0.0027517814 0 255 0
0.016805956 -0.014343821 0.0032546925 0 255 0
0.016770722 -0.013093092 0.0027893079 0 255 0
0.021049034 -0.053482816 -0.012336114 0 255 0
0.02090702 -0.052572422 -0.011837664 0 255 0
0.020765075 -0.05166211 -0.011339184 0 255 0
0.020507073 -0.051020324 -0.0098377438 0 255 0
0.020365365 -0.050111633 -0.0093401838 0 255 0
0.020108091 -0.049474608 -0.0078414585 0 255 0
0.019851329 -0.048840988 -0.0063443934 0 255 0
0.019595111 -0.04821061 -0.0048491959 0 255 0
0.019454196 -0.047306713 -0.0043542981 0 255 0
0.019198701 -0.046681151 -0.0028617482 0 255 0
0.019058026 -0.045778938 -0.0023677549 0 255 0
0.018917328 -0.044876698 -0.0018737641 0 255 0
0.018662868 -0.044257652 -0.0003848346 0 255 0
0.018522412 -0.043357022 0.00010831145 0 255 0
0.01838195 -0.042456433 0.00060138246 0 255 0
0.018241506 -0.041555867 0.0010945222 0 255 0
0.018101061 -0.040655222 0.0015876142 0 255 0
0.017960601 -0.039754588 0.0020807486 0 255 0
0.017820155 -0.038854033 0.0025738282 0 255 0
0.017679673 -0.0379535 0.0030669705 0 255 0
0.017539248 -0.037052859 0.0035600495 0 255 0
0.017398797 -0.03615227 0.0040531252 0 255 0
0.017258361 -0.035251636 0.0045462679 0 255 0
0.017228842 -0.034049954 0.0040541724 0 255 0
0.017088169 -0.033147804 0.0045481729 0 255 0
0.016947437 -0.032245532 0.0050421506 0 255 0
0.016806718 -0.031343322 0.0055362056 0 255 0
0.016666008 -0.030441094 0.0060301963 0 255 0
0.016525304 -0.029538868 0.0065241824 0 255 0
0.016494064 -0.028325826 0.0060382839 0 255 0
0.016353074 -0.027421983 0.0065331799 0 255 0
0.016321046 -0.026204074 0.0060500135 0 255 0
0.016288536 -0.024982903 0.0055685448 0 255 0
0.016363934 -0.023441173 0.004112599 0 255 0
0.016221946 -0.022530822 0.0046110717 0 255 0
0.016079981 -0.021620452 0.0051095034 0 255 0
0.016045662 -0.020387914 0.0046343459 0 255 0
0.016010806 -0.019152097 0.0041609523 0 255 0
0.015975518 -0.017913027 0.0036892714 0 255 0
0.015939686 -0.016670715 0.0032194629 0 255 0
0.01590335 -0.015425186 0.0027514091 0 255 0
0.015760107 -0.014506665 0.0032542697 0 255 0
0.015616854 -0.013588218 0.0037571792 0 255 0
0.019870427 -0.052733902 -0.011838005 0 255 0
0.019728476 -0.051823508 -0.011339591 0 255 0
0.019472327 -0.05118141 -0.0098381359 0 255 0
0.019330604 -0.050272655 -0.0093405545 0 255 0
0.019188873 -0.049363941 -0.0088430494 0 255 0
0.01893376 -0.04872838 -0.0073452042 0 255 0
0.018565958 -0.048370872 -0.0048495992 0 255 0
0.01842499 -0.047467001 -0.0043547093 0 255 0
0.018171387 -0.046841197 -0.0028621878 0 255 0
0.018030671 -0.045938972 -0.002368174 0 255 0
0.017777828 -0.04531797 -0.00087829522 0 255 0
0.01763737 -0.044417378 -0.00038520602 0 255 0
0.017496917 -0.043516759 0.00010787912 0 255 0
0.017245077 -0.04290235 0.0015942719 0 255 0
0.017104862 -0.042003304 0.0020864888 0 255 0
0.017075546 -0.040814955 0.0015872369 0 255 0
0.016935097 -0.039914396 0.0020803127 0 255 0
0.016794626 -0.039013755 0.0025734568 0 255 0
