ply
format ascii 1.0
comment PCL generated
element vertex 978
property float x
property float y
property float z
property uchar red
property uchar green
property uchar blue
element camera 0
property float view_px
property float view_py
property float view_pz
property float x_axisx
property float x_axisy
property float x_axisz
property float y_axisx
property float y_axisy
property float y_axisz
property float z_axisx
property float z_axisy
property float z_axisz
property float focal
property float scalex
property float scaley
property float centerx
property float centery
property int viewportx
property int viewporty
property float k1
property float k2
end_header
0.024764836 0.061575152 0.046077132 255 255 255
0.024285138 0.061819956 0.045303285 255 255 255
0.023805439 0.062064752 0.044529498 255 255 255
0.027630508 0.061660528 0.042620838 255 255 255
0.029297411 0.061583728 0.041270435 255 255 255
0.028811991 0.061831437 0.040487409 255 255 255
0.029399931 0.061918363 0.039416015 255 255 255
0.028913558 0.062166557 0.038631499 255 255 255
0.029498637 0.062254906 0.037555516 255 255 255
0.029011309 0.062503591 0.03676939 255 255 255
0.028523982 0.062752262 0.035983264 255 255 255
0.028036654 0.063000947 0.035197198 255 255 255
0.030752122 0.062775984 0.033518493 255 255 255
0.032395422 0.062711336 0.032129705 255 255 255
0.031903327 0.06296245 0.03133589 255 255 255
0.031411231 0.063213557 0.030542135 255 255 255
0.029855192 0.063620612 0.030052006 255 255 255
0.028301179 0.064026684 0.029564977 255 255 255
0.027810991 0.064276829 0.028774261 255 255 255
0.028381765 0.064372487 0.027675331 255 255 255
0.028950751 0.064469114 0.026573241 255 255 255
0.02951771 0.064566702 0.025468051 255 255 255
0.029024661 0.064818308 0.024672806 255 255 255
0.029588759 0.064917386 0.023563027 255 255 255
0.029094756 0.065169469 0.022766173 255 255 255
0.028600752 0.065421551 0.021969378 255 255 255
0.029161036 0.065522552 0.02085346 255 255 255
0.030772865 0.065473899 0.019414008 255 255 255
0.03132838 0.065577328 0.01829046 255 255 255
0.032933414 0.065532088 0.016840219 255 255 255
0.032433689 0.065787092 0.016034126 255 255 255
0.031934083 0.066042095 0.015228093 255 255 255
0.031434357 0.066297084 0.014421999 255 255 255
0.030934632 0.066552088 0.013615966 255 255 255
0.030434906 0.066807076 0.012809873 255 255 255
0.029935181 0.06706208 0.012003839 255 255 255
0.030480325 0.067170858 0.010863364 255 255 255
0.029979646 0.067426324 0.010055721 255 255 255
0.029478967 0.067681819 0.0092481971 255 255 255
0.030020297 0.067792535 0.0081015825 255 255 255
0.031600654 0.067759916 0.0066114068 255 255 255
0.036297143 0.067297861 0.0040889382 255 255 255
0.035788953 0.067557231 0.0032690763 255 255 255
0.035280645 0.0678166 0.0024492145 255 255 255
0.034772336 0.06807597 0.001629293 255 255 255
0.034264147 0.068335339 0.00080943108 255 255 255
0.033755839 0.068594709 -1.0430813e-05 255 255 255
0.034281909 0.068713203 -0.0011816025 255 255 255
0.032739341 0.069113448 -0.0016502142 255 255 255
0.032231033 0.069372818 -0.0024700761 255 255 255
0.031722724 0.069632187 -0.0032899976 255 255 255
0.031214416 0.069891557 -0.0041098595 255 255 255
0.031735837 0.070012465 -0.0052886605 255 255 255
0.031226575 0.070272326 -0.0061101317 255 255 255
0.030717313 0.070532173 -0.0069314837 255 255 255
0.03636831 0.069970027 -0.0099342465 255 255 255
0.036879122 0.070096299 -0.011129916 255 255 255
0.036363184 0.070359543 -0.011962116 255 255 255
0.035847366 0.070622802 -0.012794256 255 255 255
0.035331428 0.070886061 -0.013626397 255 255 255
0.035837471 0.071014732 -0.014829814 255 255 255
0.034299672 0.071412563 -0.015290737 255 255 255
0.033783734 0.071675822 -0.016122878 255 255 255
0.033267915 0.071939066 -0.016955078 255 255 255
0.032751977 0.072202325 -0.017787218 255 255 255
0.032236159 0.072465584 -0.018619359 255 255 255
0.034768999 0.072333872 -0.020592868 255 255 255
0.035265505 0.072467402 -0.021811545 255 255 255
0.034745753 0.072732598 -0.022649884 255 255 255
0.03422612 0.072997794 -0.023488224 255 255 255
0.035731256 0.073003575 -0.025099695 255 255 255
0.035209596 0.07326974 -0.025941074 255 255 255
0.035698593 0.073407143 -0.027172029 255 255 255
0.035175979 0.0736738 -0.028014958 255 255 255
0.034653485 0.073940456 -0.028857887 255 255 255
0.035138547 0.074079826 -0.030095041 255 255 255
0.035621822 0.074220181 -0.031335294 255 255 255
0.035097301 0.074487805 -0.032181263 255 255 255
0.034572899 0.07475543 -0.033027232 255 255 255
0.03505224 0.074897707 -0.034273624 255 255 255
0.034526885 0.075165823 -0.035121143 255 255 255
0.035003364 0.075309575 -0.036372125 255 255 255
0.035478055 0.075454265 -0.037626207 255 255 255
0.034950793 0.07572335 -0.038476765 255 255 255
0.03442353 0.075992435 -0.039327383 255 255 255
0.033896148 0.07626152 -0.040178001 255 255 255
0.034366071 0.076408669 -0.041439712 255 255 255
0.033837736 0.076678231 -0.04229182 255 255 255
0.033309519 0.076947808 -0.043143928 255 255 255
0.031786978 0.077337846 -0.043580353 255 255 255
0.031259596 0.077606931 -0.044430912 255 255 255
0.02874738 0.078115046 -0.044443786 255 255 255
0.028222024 0.078383163 -0.045291364 255 255 255
0.02769655 0.078651264 -0.046138823 255 255 255
0.027171195 0.078919381 -0.046986341 255 255 255
0.02269119 0.079657808 -0.046134055 255 255 255
0.02216965 0.079923972 -0.046975434 255 255 255
0.020661294 0.080306739 -0.047388792 255 255 255
0.019154966 0.080688521 -0.047799051 255 255 255
0.018635213 0.080953717 -0.048637331 255 255 255
0.01811558 0.081218913 -0.04947561 255 255 255
0.017595828 0.081484109 -0.05031395 255 255 255
0.017537415 0.081900835 -0.052427828 255 255 255
0.030284226 0.05692938 0.059752226 255 255 255
0.029806435 0.057173207 0.058981478 255 255 255
0.029328644 0.057417035 0.058210731 255 255 255
0.028850853 0.057660855 0.057439983 255 255 255
0.028505981 0.058221608 0.054865539 255 255 255
0.027069747 0.058954552 0.052548647 255 255 255
0.026591003 0.059198856 0.05177635 255 255 255
0.026112139 0.059443176 0.051004112 255 255 255
0.025633395 0.05968748 0.050231814 255 255 255
0.02515465 0.0599318 0.049459517 255 255 255
0.025756896 0.060009286 0.04841274 255 255 255
0.025277197 0.060254082 0.047638953 255 255 255
0.025876582 0.060333058 0.046587586 255 255 255
0.024317682 0.060743682 0.046091318 255 255 255
0.023837984 0.060988486 0.045317471 255 255 255
0.023358285 0.061233282 0.044543684 255 255 255
0.023953855 0.061314188 0.043486178 255 255 255
0.028845012 0.060742363 0.04128474 255 255 255
0.028359592 0.060990073 0.040501714 255 255 255
0.028946579 0.061075345 0.039430439 255 255 255
0.028460205 0.061323538 0.038645804 255 255 255
0.029044449 0.061410248 0.03756988 255 255 255
0.028557122 0.061658934 0.036783755 255 255 255
0.027001083 0.062068135 0.036292136 255 255 255
0.026514709 0.062316328 0.03550756 255 255 255
0.029228508 0.062085912 0.033830464 255 255 255
0.031936705 0.061858423 0.032144189 255 255 255
0.029314935 0.062426656 0.031951547 255 255 255
0.028824747 0.062676802 0.031160891 255 255 255
0.030460417 0.062611759 0.029762864 255 255 255
0.027844369 0.063177079 0.029579461 255 255 255
0.027354181 0.063427225 0.028788745 255 255 255
0.027924001 0.063521229 0.027689815 255 255 255
0.028492033 0.063616201 0.026587784 255 255 255
0.029058158 0.063712157 0.025482655 255 255 255
0.028565109 0.063963756 0.02468735 255 255 255
0.029128253 0.064061165 0.023577631 255 255 255
0.02863425 0.064313248 0.022780776 255 255 255
0.030249059 0.064258873 0.021349013 255 255 255
0.029753149 0.064511925 0.020549119 255 255 255
0.030309737 0.064612731 0.01942867 255 255 255
0.029812872 0.064866275 0.018627167 255 255 255
0.0303666 0.064968541 0.017502129 255 255 255
0.030918419 0.065071777 0.016374052 255 255 255
0.030419648 0.065326288 0.015569508 255 255 255
0.030968606 0.065430984 0.014436781 255 255 255
0.030468881 0.065685987 0.013630688 255 255 255
0.029969156 0.065940976 0.012824655 255 255 255
0.02946943 0.06619598 0.012018561 255 255 255
0.030013621 0.066303074 0.010878146 255 255 255
0.029513061 0.06655857 0.010070503 255 255 255
0.029012382 0.06681405 0.009262979 255 255 255
0.028511703 0.06706953 0.0084553361 255 255 255
0.036331713 0.066157535 0.0049238801 255 255 255
0.035823405 0.066416904 0.0041039586 255 255 255
0.035315216 0.066676274 0.0032840967 255 255 255
0.034806907 0.066935644 0.0024642348 255 255 255
0.034298599 0.067195013 0.0016443133 255 255 255
0.034825742 0.067310885 0.00047630072 255 255 255
0.03431648 0.067570731 -0.0003451705 255 255 255
0.032773793 0.067973122 -0.00081533194 255 255 255
0.032265484 0.068232492 -0.0016351938 255 255 255
0.031757295 0.068491861 -0.0024550557 255 255 255
0.031248987 0.068751231 -0.0032749772 255 255 255
0.030740678 0.0690106 -0.0040948391 255 255 255
0.031261146 0.069129854 -0.0052736402 255 255 255
0.030751884 0.069389716 -0.0060950518 255 255 255
0.030242741 0.069649562 -0.0069164634 255 255 255
0.035888374 0.069077507 -0.0099189878 255 255 255
0.036398232 0.06920211 -0.011114657 255 255 255
0.035882413 0.069465369 -0.011946857 255 255 255
0.035366476 0.069728628 -0.012778997 255 255 255
0.034850538 0.069991887 -0.013611197 255 255 255
0.035355747 0.070118934 -0.014814556 255 255 255
0.034838855 0.07038267 -0.015648246 255 255 255
0.033302963 0.070781648 -0.016107678 255 255 255
0.032787025 0.071044907 -0.016939819 255 255 255
0.032271206 0.071308151 -0.017772019 255 255 255
0.031755269 0.07157141 -0.018604159 255 255 255
0.034285486 0.071434766 -0.02057755 255 255 255
0.034781039 0.071566641 -0.021796227 255 255 255
0.034261405 0.071831837 -0.022634566 255 255 255
0.033741653 0.072097033 -0.023472846 255 255 255
0.03423351 0.072230861 -0.024697721 255 255 255
0.034723461 0.072365686 -0.025925636 255 255 255
0.034201801 0.072631851 -0.026767015 255 255 255
0.034689009 0.072768092 -0.02799958 255 255 255
0.034166396 0.073034748 -0.028842449 255 255 255
0.034650624 0.073172495 -0.030079603 255 255 255
0.034127176 0.073439628 -0.030924022 255 255 255
0.034608543 0.073578805 -0.032165766 255 255 255
0.034084022 0.07384643 -0.033011734 255 255 255
0.034562528 0.073987067 -0.034258068 255 255 255
0.034037173 0.074255183 -0.035105646 255 255 255
0.033511698 0.074523285 -0.035953104 255 255 255
0.03398639 0.074665859 -0.037205637 255 255 255
0.033460081 0.074934453 -0.038054645 255 255 255
0.03393203 0.075078487 -0.039311826 255 255 255
0.033404648 0.075347573 -0.040162385 255 255 255
0.033873618 0.075493068 -0.041424096 255 255 255
0.033345401 0.07576263 -0.042276204 255 255 255
0.032817185 0.076032206 -0.043128312 255 255 255
0.031295478 0.076423898 -0.043564737 255 255 255
0.030768096 0.076692984 -0.044415295 255 255 255
0.028257668 0.077204406 -0.044428289 255 255 255
0.027732193 0.077472523 -0.045275807 255 255 255
0.027206838 0.077740625 -0.046123326 255 255 255
0.026681483 0.078008741 -0.046970844 255 255 255
0.021217287 0.078872934 -0.045693696 255 255 255
0.0206967 0.079138622 -0.046533525 255 255 255
0.020175993 0.079404309 -0.047373414 255 255 255
0.018670499 0.079787761 -0.047783673 255 255 255
0.018150866 0.080052957 -0.048621953 255 255 255
0.017631114 0.080318153 -0.049460292 255 255 255
0.01711148 0.080583349 -0.050298631 255 255 255
0.01757282 0.080732718 -0.051572621 255 255 255
0.017052114 0.080998406 -0.05241245 255 255 255
0.016531527 0.081264079 -0.05325228 255 255 255
0.016010821 0.081529766 -0.054092109 255 255 255
0.02922231 0.056033134 0.060788453 255 255 255
0.028745472 0.05627647 0.060019255 255 255 255
0.028268516 0.056519821 0.059250057 255 255 255
0.028883278 0.056588873 0.058224857 255 255 255
0.028405488 0.056832694 0.05745405 255 255 255
0.027927577 0.057076521 0.056683302 255 255 255
0.028538525 0.057147488 0.055651963 255 255 255
0.028059781 0.057391793 0.054879665 255 255 255
0.02818805 0.057709038 0.05306983 255 255 255
0.026623428 0.058124736 0.052562773 255 255 255
0.026144683 0.05836904 0.051790535 255 255 255
0.025665939 0.05861336 0.051018238 255 255 255
0.026269138 0.058688223 0.049974561 255 255 255
0.02578944 0.05893302 0.049200714 255 255 255
0.026389897 0.059009366 0.048152506 255 255 255
0.025909245 0.059254646 0.047377169 255 255 255
0.025428474 0.059499934 0.046601772 255 255 255
0.023870647 0.059912212 0.046105444 255 255 255
0.02339083 0.060157016 0.045331657 255 255 255
0.022911131 0.060401812 0.04455781 255 255 255
0.023505867 0.060481064 0.043500364 255 255 255
0.027319133 0.060066059 0.041584253 255 255 255
0.026834548 0.060313284 0.040802777 255 255 255
0.027421653 0.060396418 0.039732993 255 255 255
0.028006852 0.06048052 0.038660228 255 255 255
0.027520478 0.060728714 0.037875593 255 255 255
0.027034104 0.060976915 0.037091076 255 255 255
0.02654773 0.061225116 0.0363065 255 255 255
0.026061356 0.06147331 0.035521924 255 255 255
0.028772533 0.061237946 0.033844948 255 255 255
0.028283298 0.0614876 0.033055782 255 255 255
0.028858006 0.061577037 0.031966031 255 255 255
0.028367817 0.061827183 0.031175315 255 255 255
0.0300017 0.061758831 0.029777408 255 255 255
0.02738744 0.062327459 0.029593945 255 255 255
0.026897252 0.062577605 0.028803229 255 255 255
0.029584706 0.062354386 0.027087808 255 255 255
0.029091656 0.062605977 0.026292503 255 255 255
0.028598607 0.062857576 0.025497198 255 255 255
0.028105557 0.063109174 0.024701893 255 255 255
0.027612507 0.063360766 0.023906529 255 255 255
0.027119458 0.063612372 0.023111284 255 255 255
0.029786885 0.063399345 0.021363676 255 255 255
0.029290974 0.063652396 0.020563722 255 255 255
0.029846609 0.063751563 0.019443333 255 255 255
0.029349744 0.064005107 0.018641829 255 255 255
0.029902518 0.064105734 0.017516851 255 255 255
0.030453503 0.064207315 0.016388714 255 255 255
0.029954731 0.064461827 0.01558423 255 255 255
0.030502737 0.064564854 0.014451504 255 255 255
0.030003011 0.064819857 0.01364547 255 255 255
0.029503405 0.065074846 0.012839377 255 255 255
0.02900368 0.06532985 0.012033343 255 255 255
0.029547036 0.06543532 0.010892928 255 255 255
0.029046357 0.065690815 0.010085285 255 255 255
0.028545678 0.065946296 0.009277761 255 255 255
0.028044999 0.066201776 0.008470118 255 255 255
0.035857975 0.065276578 0.0049388409 255 255 255
0.035349667 0.065535933 0.004118979 255 255 255
0.034841359 0.065795302 0.0032990575 255 255 255
0.034333169 0.066054672 0.0024791956 255 255 255
0.034860313 0.066168413 0.0013126731 255 255 255
0.034351051 0.066428259 0.00049132109 255 255 255
0.032808363 0.066832781 1.9550323e-05 255 255 255
0.032300055 0.06709215 -0.00080031157 255 255 255
0.031791747 0.06735152 -0.0016201735 255 255 255
0.031283438 0.06761089 -0.0024400353 255 255 255
0.030775249 0.067870259 -0.0032599568 255 255 255
0.030266941 0.068129629 -0.0040798187 255 255 255
0.030786574 0.068247244 -0.0052586198 255 255 255
0.030277312 0.068507105 -0.0060800314 255 255 255
0.02976805 0.068766952 -0.006901443 255 255 255
0.035408318 0.068185002 -0.0099037886 255 255 255
0.034893453 0.068447769 -0.010734439 255 255 255
0.035401523 0.06857121 -0.011931598 255 255 255
0.034885585 0.068834469 -0.012763798 255 255 255
0.034369767 0.069097728 -0.013595939 255 255 255
0.034874022 0.069223121 -0.014799297 255 255 255
0.034357131 0.069486856 -0.015632987 255 255 255
0.032822073 0.069887489 -0.01609242 255 255 255
0.032306135 0.070150748 -0.01692456 255 255 255
0.031790316 0.070413992 -0.01775676 255 255 255
0.033305347 0.070406377 -0.019346595 255 255 255
0.033801973 0.07053563 -0.020562232 255 255 255
0.034296691 0.070665881 -0.021780908 255 255 255
0.033776939 0.070931077 -0.022619188 255 255 255
0.033257306 0.071196273 -0.023457468 255 255 255
0.033748209 0.071328461 -0.024682343 255 255 255
0.034237325 0.071461633 -0.025910199 255 255 255
0.033715665 0.071727797 -0.026751637 255 255 255
0.03420192 0.071862385 -0.027984142 255 255 255
0.033679307 0.072129041 -0.028827012 255 255 255
0.0341627 0.072265103 -0.030064166 255 255 255
0.033639133 0.072532251 -0.030908585 255 255 255
0.034119666 0.072669789 -0.032150328 255 255 255
0.033595145 0.072937414 -0.032996237 255 255 255
0.034072816 0.073076412 -0.03424257 255 255 255
0.033547461 0.073344529 -0.035090089 255 255 255
0.033021986 0.073612645 -0.035937607 255 255 255
0.033495843 0.073753566 -0.03719008 255 255 255
0.032969415 0.074022159 -0.038039148 255 255 255
0.03344053 0.074164525 -0.03929621 255 255 255
0.032913148 0.07443361 -0.040146828 255 255 255
0.033381283 0.074577466 -0.041408479 255 255 255
0.033847511 0.074722275 -0.04267323 255 255 255
0.032324731 0.075116605 -0.043112755 255 255 255
0.030803978 0.075509936 -0.04354918 255 255 255
0.030276597 0.075779021 -0.044399798 255 255 255
0.027767956 0.076293752 -0.044412792 255 255 255
0.027242482 0.076561868 -0.04526031 255 255 255
0.02276212 0.077317342 -0.044420481 255 255 255
0.02224046 0.077583507 -0.04526186 255 255 255
0.020732105 0.077970535 -0.045678318 255 255 255
0.020211399 0.078236222 -0.046518207 255 255 255
0.019690812 0.07850191 -0.047358036 255 255 255
0.019170105 0.078767583 -0.048197865 255 255 255
0.017666399 0.079152197 -0.048606634 255 255 255
0.017146766 0.079417393 -0.049444973 255 255 255
0.017608225 0.079564631 -0.050717413 255 255 255
0.017087519 0.079830319 -0.051557243 255 255 255
0.016566932 0.080096006 -0.052397072 255 255 255
0.016046226 0.080361679 -0.053236902 255 255 255
0.01552552 0.080627367 -0.054076731 255 255 255
0.015981257 0.080777541 -0.05535835 255 255 255
0.028777778 0.055206612 0.060802519 255 255 255
0.028300941 0.055449948 0.060033321 255 255 255
0.027824104 0.055693299 0.059264123 255 255 255
0.028437912 0.055760711 0.058238924 255 255 255
0.027960122 0.056004532 0.057468176 255 255 255
0.027482212 0.056248359 0.056697428 255 255 255
0.027004421 0.056492187 0.055926681 255 255 255
0.02761358 0.056561977 0.054893792 255 255 255
0.028220594 0.05663278 0.053857863 255 255 255
0.027740896 0.056877583 0.053084016 255 255 255
0.027261198 0.05712238 0.052310169 255 255 255
0.026781499 0.057367176 0.051536381 255 255 255
0.026301801 0.057611972 0.050762534 255 255 255
0.025822103 0.057856768 0.049988687 255 255 255
0.025342286 0.058101565 0.0492149 255 255 255
0.02702111 0.058006108 0.047892272 255 255 255
0.026539505 0.058251888 0.047115386 255 255 255
0.02605778 0.058497652 0.046338499 255 255 255
0.023423493 0.059080757 0.04611963 255 255 255
0.022943795 0.059325561 0.045345843 255 255 255
0.02353853 0.05940266 0.044289887 255 255 255
0.025204957 0.059313506 0.042947292 255 255 255
0.024722397 0.05955977 0.042168856 255 255 255
0.026382983 0.059473559 0.040817082 255 255 255
0.026969254 0.059555039 0.039747357 255 255 255
0.026483834 0.059802756 0.038964331 255 255 255
0.027067125 0.059885696 0.037890017 255 255 255
0.026580751 0.060133897 0.037105441 255 255 255
0.029295027 0.059890673 0.035437703 255 255 255
0.028805792 0.060140327 0.034648538 255 255 255
0.028316557 0.060389981 0.033859372 255 255 255
0.027827322 0.060639635 0.033070207 255 255 255
0.028401077 0.060727417 0.031980515 255 255 255
0.027910888 0.060977563 0.031189799 255 255 255
0.029543102 0.060905918 0.029791951 255 255 255
0.029051006 0.061157033 0.028998137 255 255 255
0.02855891 0.061408147 0.028204381 255 255 255
0.029125035 0.061499819 0.027102351 255 255 255
0.028632104 0.06175141 0.026307046 255 255 255
0.028139055 0.062003009 0.025511742 255 255 255
0.027646005 0.062254608 0.024716437 255 255 255
0.027152956 0.062506199 0.023921132 255 255 255
0.026659906 0.062757805 0.023125827 255 255 255
0.029324591 0.062539846 0.021378279 255 255 255
0.028828681 0.062792897 0.020578384 255 255 255
0.029383481 0.06289041 0.019457996 255 255 255
0.029936373 0.062988892 0.018334508 255 255 255
0.030487359 0.063088328 0.01720798 255 255 255
0.029988587 0.063342839 0.016403496 255 255 255
0.030536711 0.06344375 0.015272319 255 255 255
0.030036986 0.063698739 0.014466286 255 255 255
0.029537261 0.063953742 0.013660192 255 255 255
0.029037535 0.064208731 0.012854159 255 255 255
0.028537929 0.064463735 0.012048066 255 255 255
0.029080331 0.064567566 0.01090771 255 255 255
0.028579652 0.064823031 0.010100067 255 255 255
0.028079093 0.065078527 0.0092925429 255 255 255
0.027578413 0.065334007 0.0084849 255 255 255
0.035384238 0.064395621 0.0049538612 255 255 255
0.034875929 0.064654976 0.0041339993 255 255 255
0.034367621 0.064914346 0.0033140779 255 255 255
0.033859432 0.065173715 0.002494216 255 255 255
0.033351123 0.065433085 0.0016743541 255 255 255
0.032842815 0.065692455 0.00085443258 255 255 255
0.032334507 0.065951824 3.4570694e-05 255 255 255
0.031826317 0.066211194 -0.00078529119 255 255 255
0.031318009 0.066470563 -0.0016052127 255 255 255
0.0308097 0.066729933 -0.0024250746 255 255 255
0.030301511 0.066989303 -0.0032449365 255 255 255
0.029793203 0.067248672 -0.004064858 255 255 255
0.030311882 0.067364633 -0.0052435994 255 255 255
0.02980262 0.067624494 -0.0060649514 255 255 255
0.030318439 0.067741901 -0.007248342 255 255 255
0.033904374 0.06743446 -0.0095251203 255 255 255
0.034413517 0.067555279 -0.01071924 255 255 255
0.034920633 0.067677051 -0.011916399 255 255 255
0.034404814 0.06794031 -0.012748539 255 255 255
0.033888876 0.068203568 -0.013580739 255 255 255
0.034392297 0.068327308 -0.014784038 255 255 255
0.033875406 0.068591043 -0.015617728 255 255 255
0.032341182 0.06899333 -0.01607722 255 255 255
0.031825364 0.069256589 -0.016909361 255 255 255
0.031309426 0.069519833 -0.017741501 255 255 255
0.03383714 0.069371805 -0.019710124 255 255 255
0.034331977 0.069499925 -0.02092725 255 255 255
0.033812225 0.069765121 -0.02176553 255 255 255
0.033292592 0.070030317 -0.022603869 255 255 255
0.032772839 0.070295513 -0.023442149 255 255 255
0.033262908 0.070426062 -0.024666965 255 255 255
0.03375107 0.07055755 -0.025894821 255 255 255
0.034237444 0.070690021 -0.027125776 255 255 255
0.033714831 0.070956677 -0.027968705 255 255 255
0.033192337 0.071223333 -0.028811634 255 255 255
0.033674777 0.071357772 -0.030048668 255 255 255
0.034155309 0.071493149 -0.031288803 255 255 255
0.033630788 0.071760774 -0.032134831 255 255 255
0.03410846 0.071897641 -0.033379555 255 255 255
0.033583105 0.072165743 -0.034227073 255 255 255
0.03305763 0.072433859 -0.035074592 255 255 255
0.032532275 0.072701976 -0.03592211 255 255 255
0.033005178 0.072841257 -0.037174523 255 255 255
0.032478869 0.07310985 -0.038023591 255 255 255
0.031952441 0.073378444 -0.038872659 255 255 255
0.032421649 0.073519647 -0.040131271 255 255 255
0.033883393 0.073534966 -0.041803956 255 255 255
0.033354223 0.073805019 -0.042657614 255 255 255
0.031832397 0.074200988 -0.043097138 255 255 255
0.030312479 0.074595973 -0.043533623 255 255 255
0.029785097 0.074865058 -0.044384181 255 255 255
0.027278244 0.075383082 -0.044397295 255 255 255
0.02675277 0.075651199 -0.045244753 255 255 255
0.026227415 0.075919315 -0.046092331 255 255 255
0.021754324 0.076679438 -0.045246482 255 255 255
0.021232665 0.076945618 -0.046087861 255 255 255
0.019726098 0.077333823 -0.046502829 255 255 255
0.019205511 0.077599511 -0.047342658 255 255 255
0.018684804 0.077865183 -0.048182487 255 255 255
0.018164217 0.078130871 -0.049022317 255 255 255
0.017643511 0.078396559 -0.049862206 255 255 255
0.017122924 0.078662232 -0.050702035 255 255 255
0.016602218 0.078927919 -0.051541865 255 255 255
0.016081631 0.079193607 -0.052381694 255 255 255
0.015560925 0.07945928 -0.053221524 255 255 255
0.015040338 0.079724967 -0.054061353 255 255 255
0.015495121 0.079873472 -0.055342972 255 255 255
0.019846261 0.079556197 -0.05840081 255 255 255
0.027856529 0.05462344 0.060047448 255 255 255
0.027379572 0.054866791 0.05927819 255 255 255
0.027992547 0.05493252 0.05825305 255 255 255
0.027514637 0.05517634 0.057482302 255 255 255
0.027036846 0.055420168 0.056711495 255 255 255
0.026559055 0.055663995 0.055940807 255 255 255
0.027167261 0.055732161 0.054907918 255 255 255
0.026688516 0.05597648 0.054135621 255 255 255
0.026209772 0.056220792 0.053363383 255 255 255
0.026814044 0.056290895 0.052324355 255 255 255
0.026334345 0.056535691 0.051550508 255 255 255
0.025854647 0.056780487 0.05077672 255 255 255
0.025374949 0.057025284 0.050002873 255 255 255
0.024895132 0.05727008 0.049229085 255 255 255
0.027650535 0.056999564 0.047632098 255 255 255
0.027167976 0.057245821 0.046853662 255 255 255
0.026685417 0.057492077 0.046075284 255 255 255
0.022976339 0.058249272 0.046133816 255 255 255
0.022496641 0.058494076 0.045359969 255 255 255
0.023090422 0.058569551 0.044304073 255 255 255
0.02475518 0.058477089 0.042961538 255 255 255
0.024272501 0.058723353 0.042183101 255 255 255
0.025931418 0.058633834 0.040831387 255 255 255
0.026516736 0.058713675 0.039761662 255 255 255
0.026031315 0.058961391 0.038978636 255 255 255
0.030885279 0.05837696 0.03673923 255 255 255
0.029328167 0.058793053 0.036241353 255 255 255
0.028838933 0.059042707 0.035452187 255 255 255
0.028349698 0.059292361 0.034662962 255 255 255
0.027860463 0.059542015 0.033873796 255 255 255
0.029497445 0.05946368 0.032486737 255 255 255
0.027944148 0.059877798 0.031994998 255 255 255
0.027453959 0.060127944 0.031204283 255 255 255
0.029084384 0.060053006 0.029806435 255 255 255
0.028592288 0.06030412 0.02901268 255 255 255
0.028100193 0.060555235 0.028218925 255 255 255
0.028665483 0.060645252 0.027116954 255 255 255
0.028172433 0.060896844 0.02632159 255 255 255
0.027679384 0.061148442 0.025526285 255 255 255
0.026131809 0.061559677 0.025043786 255 255 255
0.025639713 0.061810791 0.024249971 255 255 255
0.026200354 0.061903238 0.023140371 255 255 255
0.026758969 0.061996669 0.022027671 255 255 255
0.027315676 0.062091067 0.020911932 255 255 255
0.028920352 0.062029228 0.019472659 255 255 255
0.030521214 0.061969355 0.018027246 255 255 255
0.030022442 0.062223867 0.017222703 255 255 255
0.029523671 0.062478378 0.016418159 255 255 255
0.030070961 0.062577635 0.015287101 255 255 255
0.029571235 0.062832624 0.014481008 255 255 255
0.02907151 0.063087627 0.013674974 255 255 255
0.028571784 0.063342616 0.012868941 255 255 255
0.028072059 0.06359762 0.012062848 255 255 255
0.028613746 0.063699782 0.010922492 255 255 255
0.027072728 0.064107612 0.010450721 255 255 255
0.026573002 0.064362615 0.0096446872 255 255 255
0.027111709 0.064466238 0.0084996819 255 255 255
0.034402192 0.063774019 0.0041490197 255 255 255
0.033893883 0.064033389 0.0033290982 255 255 255
0.033385575 0.064292759 0.0025092363 255 255 255
0.032877386 0.064552128 0.0016893744 255 255 255
0.032369077 0.064811498 0.00086945295 255 255 255
0.031860769 0.065070868 4.9591064e-05 255 255 255
0.03135258 0.065330237 -0.00077027082 255 255 255
0.030844271 0.065589607 -0.0015901923 255 255 255
0.030335963 0.065848976 -0.0024100542 255 255 255
0.029827654 0.066108346 -0.0032299161 255 255 255
0.030346453 0.066222176 -0.0044071078 255 255 255
0.029837191 0.066482022 -0.005228579 255 255 255
0.03035301 0.066597313 -0.0064103007 255 255 255
0.030866921 0.066713542 -0.0075951219 255 255 255
0.033425272 0.066543609 -0.0095099807 255 255 255
0.033933461 0.066662759 -0.010704041 255 255 255
0.034439862 0.066782892 -0.01190114 255 255 255
0.033923924 0.067046151 -0.012733281 255 255 255
0.033407986 0.067309409 -0.013565481 255 255 255
0.033910573 0.067431495 -0.014768779 255 255 255
0.033393681 0.06769523 -0.01560241 255 255 255
0.031860411 0.068099171 -0.016061962 255 255 255
0.031344473 0.06836243 -0.016894162 255 255 255
0.031843126 0.068486452 -0.01810354 255 255 255
0.033353627 0.068472713 -0.019694805 255 255 255
0.03384763 0.068599164 -0.020911872 255 255 255
0.033327878 0.06886436 -0.021750212 255 255 255
0.031797469 0.069266856 -0.022205114 255 255 255
0.03127867 0.06953156 -0.023041904 255 255 255
0.032777607 0.069523647 -0.024651587 255 255 255
0.03427285 0.069517672 -0.026267469 255 255 255
0.033750355 0.069784313 -0.027110338 255 255 255
0.033227742 0.07005097 -0.027953267 255 255 255
0.033710301 0.070183262 -0.029188812 255 255 255
0.034190834 0.070316538 -0.030427396 255 255 255
0.033666432 0.070584163 -0.031273365 255 255 255
0.034144223 0.070718855 -0.032516539 255 255 255
0.033618748 0.070986971 -0.033364058 255 255 255
0.033093393 0.071255073 -0.034211576 255 255 255
0.032567918 0.07152319 -0.035059094 255 255 255
0.032042563 0.071791306 -0.035906613 255 255 255
0.032514632 0.071928948 -0.037159026 255 255 255
0.031988204 0.072197542 -0.038008034 255 255 255
0.031461895 0.072466135 -0.038857102 255 255 255
0.031930149 0.072605699 -0.040115654 255 255 255
0.031402886 0.072874784 -0.040966272 255 255 255
0.031868279 0.073015794 -0.042229414 255 255 255
0.031339943 0.073285371 -0.043081582 255 255 255
0.029820979 0.073682025 -0.043518007 255 255 255
0.029293597 0.07395111 -0.044368625 255 255 255
0.026788533 0.074472412 -0.044381797 255 255 255
0.026263058 0.074740529 -0.045229256 255 255 255
0.025737703 0.075008646 -0.046076775 255 255 255
0.021268189 0.075775385 -0.045231044 255 255 255
0.020746529 0.076041564 -0.046072423 255 255 255
0.020224988 0.076307729 -0.046913803 255 255 255
0.019703329 0.076573893 -0.047755182 255 255 255
0.018199503 0.076962769 -0.048167109 255 255 255
0.016697586 0.077350676 -0.048575938 255 255 255
0.016177952 0.077615872 -0.049414217 255 255 255
0.016637623 0.077759817 -0.050686657 255 255 255
0.016116917 0.078025505 -0.051526487 255 255 255
0.01559633 0.078291193 -0.052366316 255 255 255
0.015075624 0.078556865 -0.053206146 255 255 255
0.014555037 0.078822553 -0.054045975 255 255 255
0.017932832 0.078612939 -0.056652784 255 255 255
0.019355595 0.078643888 -0.058385313 255 255 255
0.027411997 0.053796917 0.060061514 255 255 255
0.02693516 0.054040268 0.059292257 255 255 255
0.027547181 0.054104358 0.058267176 255 255 255
0.02706939 0.054348178 0.057496369 255 255 255
0.02659148 0.054592006 0.056725621 255 255 255
0.026113689 0.054835834 0.055954874 255 255 255
0.02672106 0.05490233 0.054922044 255 255 255
0.026242197 0.055146649 0.054149806 255 255 255
0.025763452 0.055390961 0.053377509 255 255 255
0.026366889 0.055459425 0.052338541 255 255 255
0.025887191 0.055704221 0.051564693 255 255 255
0.025407493 0.055949017 0.050790846 255 255 255
0.024927795 0.056193814 0.050017059 255 255 255
0.024448097 0.05643861 0.049243271 255 255 255
0.027200758 0.056163147 0.047646344 255 255 255
0.026718199 0.056409404 0.046867907 255 255 255
0.023008883 0.057173006 0.04692179 255 255 255
0.022529185 0.057417803 0.046147943 255 255 255
0.022049487 0.057662606 0.045374155 255 255 255
0.023715079 0.057565421 0.044036269 255 255 255
0.024305284 0.057640672 0.042975783 255 255 255
0.02596432 0.057546899 0.041627169 255 255 255
0.025479853 0.057794124 0.040845692 255 255 255
0.026064336 0.057872295 0.039776027 255 255 255
0.026646793 0.057951465 0.038703263 255 255 255
0.029361427 0.057695419 0.037044942 255 255 255
0.028872192 0.057945073 0.036255777 255 255 255
0.028382957 0.058194727 0.035466611 255 255 255
0.027893722 0.058444381 0.034677446 255 255 255
0.027404487 0.058694035 0.03388828 255 255 255
0.026915252 0.058943689 0.033099115 255 255 255
0.027487218 0.059028178 0.032009482 255 255 255
0.026997149 0.059278324 0.031218767 255 255 255
0.028625786 0.059200093 0.029820979 255 255 255
0.02813369 0.059451208 0.029027164 255 255 255
0.027641594 0.059702322 0.028233409 255 255 255
0.028205931 0.059790686 0.027131498 255 255 255
0.027712882 0.060042277 0.026336193 255 255 255
0.027219832 0.060293876 0.025540888 255 255 255
0.025673211 0.060706764 0.025058329 255 255 255
0.025181115 0.060957879 0.024264514 255 255 255
0.025740802 0.061048672 0.023154914 255 255 255
0.026298463 0.061140463 0.022042274 255 255 255
0.026854336 0.061233208 0.020926535 255 255 255
0.028457224 0.06116806 0.019487321 255 255 255
0.030056298 0.061104909 0.018041968 255 255 255
0.029557526 0.06135942 0.017237484 255 255 255
0.030104816 0.061456501 0.016107917 255 255 255
0.02960521 0.06171149 0.015301883 255 255 255
0.029105484 0.061966494 0.01449579 255 255 255
0.028605759 0.062221497 0.013689697 255 255 255
0.028106034 0.062476486 0.012883663 255 255 255
0.027606308 0.06273149 0.01207763 255 255 255
0.028147042 0.062832028 0.010937274 255 255 255
0.026606858 0.063241482 0.010465443 255 255 255
0.026107252 0.063496485 0.0096594095 255 255 255
0.034944952 0.062374309 0.0058037639 255 255 255
0.034436643 0.062633678 0.0049838424 255 255 255
0.033928454 0.062893048 0.0041639805 255 255 255
0.033420146 0.063152418 0.0033441186 255 255 255
0.03394562 0.063260719 0.0021792054 255 255 255
0.032403648 0.063671157 0.0017043948 255 255 255
0.031895339 0.063930526 0.00088447332 255 255 255
0.031387031 0.064189896 6.455183e-05 255 255 255
0.030878723 0.064449266 -0.00075531006 255 255 255
0.030370533 0.064708635 -0.0015751719 255 255 255
0.029862225 0.064968005 -0.0023950338 255 255 255
0.029353917 0.065227374 -0.0032148957 255 255 255
0.029871762 0.06533955 -0.0043920875 255 255 255
0.029362619 0.065599397 -0.0052134991 255 255 255
0.028853357 0.065859258 -0.0060349107 255 255 255
0.030390561 0.065827638 -0.0075800419 255 255 255
0.032946289 0.065652728 -0.0094947815 255 255 255
0.033453524 0.065770239 -0.010688841 255 255 255
0.033958972 0.065888733 -0.011885941 255 255 255
0.033443034 0.066151991 -0.012718081 255 255 255
0.032927215 0.06641525 -0.013550222 255 255 255
0.033428729 0.066535696 -0.01475352 255 255 255
0.032911956 0.066799432 -0.015587151 255 255 255
0.032395065 0.067063183 -0.016420901 255 255 255
0.031878293 0.067326918 -0.017254591 255 255 255
0.032375157 0.067449778 -0.018465519 255 255 255
0.031857431 0.067714006 -0.019300759 255 255 255
0.031339586 0.067978233 -0.020135999 255 255 255
0.031832635 0.06810303 -0.021353066 255 255 255
0.031313956 0.068367749 -0.022189796 255 255 255
0.030795157 0.068632454 -0.023026586 255 255 255
0.03330034 0.068483278 -0.025022686 255 255 255
0.03378576 0.068611979 -0.026252031 255 255 255
0.033263266 0.068878621 -0.027094901 255 255 255
0.032740653 0.069145277 -0.027937829 255 255 255
0.033222377 0.069275901 -0.029173315 255 255 255
0.033702075 0.069407508 -0.030411899 255 255 255
0.033177555 0.069675133 -0.031257868 255 255 255
0.032653153 0.069942757 -0.032103837 255 255 255
0.032128632 0.070210382 -0.032949805 255 255 255
0.032603681 0.070344433 -0.034196079 255 255 255
0.032078207 0.07061255 -0.035043538 255 255 255
0.031552851 0.070880666 -0.035891116 255 255 255
0.032023966 0.071016639 -0.037143469 255 255 255
0.031497657 0.071285233 -0.037992537 255 255 255
0.031966031 0.071422651 -0.039249539 255 255 255
0.031438649 0.071691737 -0.040100157 255 255 255
0.030911386 0.071960822 -0.040950716 255 255 255
0.030384004 0.072229907 -0.041801274 255 255 255
0.030847609 0.072369784 -0.043065965 255 255 255
0.029329479 0.072768062 -0.04350251 255 255 255
0.028802097 0.073037148 -0.044353068 255 255 255
0.026298702 0.073561773 -0.044366241 255 255 255
0.025773346 0.073829889 -0.045213759 255 255 255
0.022289693 0.074478373 -0.04479605 255 255 255
0.020781934 0.074871331 -0.045215666 255 255 255
0.020260394 0.075137511 -0.046057045 255 255 255
0.019738734 0.075403675 -0.046898425 255 255 255
0.019217193 0.07566984 -0.047739804 255 255 255
0.017714202 0.076060355 -0.048151791 255 255 255
0.016213238 0.076449916 -0.048560619 255 255 255
0.015693486 0.076715112 -0.049398899 255 255 255
0.016152322 0.076857403 -0.050671279 255 255 255
0.015631616 0.077123091 -0.051511109 255 255 255
0.016087592 0.077266857 -0.052788079 255 255 255
0.015565932 0.077533022 -0.053629458 255 255 255
0.016993701 0.077557251 -0.055351138 255 255 255
0.017443955 0.077703908 -0.056637287 255 255 255
0.017892301 0.077851564 -0.057926476 255 255 255
0.027444422 0.052727059 0.060844779 255 255 255
0.026967466 0.052970394 0.060075581 255 255 255
0.026490629 0.053213745 0.059306324 255 255 255
0.027101815 0.053276181 0.058281243 255 255 255
0.026623905 0.053520001 0.057510495 255 255 255
0.026146114 0.053763829 0.056739748 255 255 255
0.026753485 0.05382821 0.055708468 255 255 255
0.026274741 0.054072514 0.05493623 255 255 255
0.025795996 0.054316834 0.054163933 255 255 255
0.026399553 0.054383174 0.053126514 255 255 255
0.025919735 0.05462797 0.052352667 255 255 255
0.025440037 0.054872766 0.05157882 255 255 255
0.024960339 0.055117562 0.050805032 255 255 255
0.024480641 0.055362359 0.050031185 255 255 255
0.021845758 0.055958271 0.049803019 255 255 255
0.021367967 0.056202091 0.049032271 255 255 255
0.026268423 0.055572987 0.046882153 255 255 255
0.022561729 0.056341551 0.046935916 255 255 255
0.022082031 0.056586348 0.046162128 255 255 255
0.022675097 0.056658015 0.045107841 255 255 255
0.023266256 0.056730658 0.044050515 255 255 255
0.023855507 0.056804255 0.042990029 255 255 255
0.026582658 0.056535527 0.041356385 255 255 255
0.026097238 0.056783237 0.040573418 255 255 255
0.025611818 0.057030946 0.039790332 255 255 255
0.02619344 0.057108447 0.038717628 255 255 255
0.028905451 0.056847453 0.037059367 255 255 255
0.028416216 0.057097107 0.036270201 255 255 255
0.027926981 0.057346761 0.035481036 255 255 255
0.027437747 0.057596415 0.03469187 255 255 255
0.026948512 0.057846069 0.033902705 255 255 255
0.026459277 0.058095723 0.033113539 255 255 255
0.027030408 0.058178574 0.032023966 255 255 255
0.027599633 0.058262408 0.030931294 255 255 255
0.028167069 0.05834718 0.029835522 255 255 255
0.028732479 0.058432914 0.028736651 255 255 255
0.029295981 0.058519661 0.027634799 255 255 255
0.028802097 0.058771744 0.026837945 255 255 255
0.028308094 0.059023827 0.02604109 255 255 255
0.028867781 0.059112489 0.0249331 255 255 255
0.027320087 0.059527993 0.024447381 255 255 255
0.025774181 0.059942499 0.023964822 255 255 255
0.025281131 0.060194105 0.023169458 255 255 255
0.025838077 0.060284242 0.022056878 255 255 255
0.027442038 0.060214341 0.020622313 255 255 255
0.027994215 0.060306907 0.019501984 255 255 255
0.029591501 0.060240433 0.018056691 255 255 255
0.030138791 0.060335405 0.016928732 255 255 255
0.029639065 0.060590401 0.016122639 255 255 255
0.02913934 0.060845397 0.015316606 255 255 255
0.028639734 0.061100394 0.014510572 255 255 255
0.028140008 0.061355397 0.013704479 255 255 255
0.027640283 0.061610386 0.012898386 255 255 255
0.027140558 0.061865389 0.012092352 255 255 255
0.028719842 0.061808139 0.010617793 255 255 255
0.029256761 0.061908484 0.0094729662 255 255 255
0.029791653 0.062009752 0.0083250403 255 255 255
0.034471214 0.061493367 0.0058187842 255 255 255
0.033962905 0.061752751 0.0049988627 255 255 255
0.03241998 0.062165782 0.0045208335 255 255 255
0.033980191 0.062118262 0.003015697 255 255 255
0.033470929 0.062378123 0.0021942258 255 255 255
0.031929791 0.062790215 0.0017193556 255 255 255
0.031421602 0.063049585 0.00089949369 255 255 255
0.030913293 0.063308954 7.9572201e-05 255 255 255
0.030404985 0.063568324 -0.00074028969 255 255 255
0.029896796 0.063827693 -0.0015601516 255 255 255
0.029388487 0.064087063 -0.0023800731 255 255 255
0.028880179 0.064346433 -0.003199935 255 255 255
0.02939719 0.064456955 -0.0043770671 255 255 255
0.028887928 0.064716801 -0.0051984787 255 255 255
0.028378665 0.064976662 -0.0060198903 255 255 255
0.032981098 0.064499587 -0.0086505413 255 255 255
0.032467186 0.064761877 -0.0094795823 255 255 255
0.032973588 0.064877748 -0.010673583 255 255 255
0.033478081 0.064994574 -0.011870682 255 255 255
0.032962263 0.065257832 -0.012702882 255 255 255
0.032446325 0.065521091 -0.013535023 255 255 255
0.032947004 0.065639883 -0.014738262 255 255 255
0.032430232 0.065903619 -0.015571892 255 255 255
0.032928169 0.066023856 -0.016779721 255 255 255
0.032410324 0.066288084 -0.01761502 255 255 255
0.031892598 0.066552311 -0.018450201 255 255 255
0.031374753 0.066816539 -0.01928544 255 255 255
0.030857027 0.067080766 -0.02012068 255 255 255
0.031349123 0.067203894 -0.021337688 255 255 255
0.031839311 0.067328036 -0.022557795 255 255 255
0.031319678 0.067593232 -0.023396134 255 255 255
0.030799925 0.067858428 -0.024234414 255 255 255
0.03329879 0.067706257 -0.026236594 255 255 255
0.032776177 0.067972898 -0.027079523 255 255 255
0.032253683 0.068239555 -0.027922451 255 255 255
0.032734334 0.068368554 -0.029157877 255 255 255
0.032210886 0.068635687 -0.030002296 255 255 255
0.031687319 0.068902835 -0.030846775 255 255 255
0.032164276 0.069033742 -0.032088339 255 255 255
0.031639874 0.069301367 -0.032934368 255 255 255
0.031115353 0.069568992 -0.033780277 255 255 255
0.030590951 0.069836617 -0.034626305 255 255 255
0.030066431 0.070104256 -0.035472274 255 255 255
0.031533301 0.070104331 -0.037127912 255 255 255
0.031006992 0.070372924 -0.03797698 255 255 255
0.031474531 0.070508689 -0.039233983 255 255 255
0.030947149 0.070777774 -0.040084541 255 255 255
0.030419886 0.071046859 -0.040935159 255 255 255
0.029892504 0.071315929 -0.041785717 255 255 255
0.031345189 0.071323305 -0.043464363 255 255 255
0.028837979 0.0718541 -0.043486893 255 255 255
0.023370326 0.072772682 -0.042251885 255 255 255
0.022847712 0.073039338 -0.043094814 255 255 255
0.022325218 0.073305994 -0.043937743 255 255 255
0.021802604 0.073572651 -0.044780612 255 255 255
0.020295799 0.073967263 -0.045200288 255 255 255
0.019774139 0.074233443 -0.046041667 255 255 255
0.019252598 0.074499607 -0.046883047 255 255 255
0.018730938 0.074765772 -0.047724426 255 255 255
0.018209398 0.075031951 -0.048565805 255 255 255
0.016708314 0.075423643 -0.048976243 255 255 255
0.016187608 0.075689331 -0.049816072 255 255 255
0.015667021 0.075955003 -0.050655901 255 255 255
0.015146315 0.076220691 -0.051495731 255 255 255
0.01365 0.076609954 -0.051898479 255 255 255
0.013130367 0.07687515 -0.052736819 255 255 255
0.013584435 0.077017739 -0.054015279 255 255 255
0.016955078 0.076794893 -0.05662179 255 255 255
0.01740247 0.076940894 -0.057910979 255 255 255
0.026999891 0.051900521 0.060858905 255 255 255
0.026523054 0.052143857 0.060089648 255 255 255
0.026046216 0.052387208 0.05932045 255 255 255
0.026656449 0.052448004 0.058295369 255 255 255
0.026178539 0.052691825 0.057524621 255 255 255
0.025700748 0.052935652 0.056753814 255 255 255
0.026307285 0.052998379 0.055722654 255 255 255
0.02582854 0.053242683 0.054950356 255 255 255
0.026432097 0.053306885 0.053914487 255 255 255
0.025952399 0.053551689 0.05314064 255 255 255
0.025472581 0.053796485 0.052366853 255 255 255
0.024992883 0.054041281 0.051593006 255 255 255
0.024513185 0.054286078 0.050819218 255 255 255
0.024033487 0.054530874 0.050045371 255 255 255
0.021400392 0.055130094 0.049817085 255 255 255
0.020922601 0.055373915 0.049046338 255 255 255
0.02044481 0.055617735 0.04827565 255 255 255
0.021634877 0.055754863 0.046176255 255 255 255
0.022226989 0.055824891 0.045122027 255 255 255
0.022817314 0.05589588 0.044064701 255 255 255
0.026712835 0.055769026 0.040301144 255 255 255
0.026226461 0.056017235 0.039516568 255 255 255
0.028938591 0.055749834 0.037863016 255 255 255
0.028449357 0.055999488 0.037073851 255 255 255
0.027960122 0.056249142 0.036284626 255 255 255
0.027470887 0.056498796 0.03549546 255 255 255
0.026981652 0.05674845 0.034706295 255 255 255
0.026492417 0.056998104 0.033917129 255 255 255
0.027063668 0.057078816 0.032829106 255 255 255
0.027633011 0.057160489 0.031737983 255 255 255
0.027141869 0.057411119 0.030945778 255 255 255
0.027708352 0.057494253 0.029850066 255 255 255
0.028272927 0.057578363 0.028751254 255 255 255
0.027779877 0.057829961 0.027955949 255 255 255
0.027286828 0.058081567 0.027160585 255 255 255
0.027847588 0.058167607 0.026055694 255 255 255
0.027353585 0.05841969 0.025258839 255 255 255
0.026859581 0.058671772 0.024461985 255 255 255
0.026365578 0.058923855 0.02366513 255 255 255
0.025871575 0.059175938 0.022868276 255 255 255
0.026426613 0.059264913 0.021754146 255 255 255
0.028027952 0.059192188 0.020318091 255 255 255
0.027531087 0.059445724 0.019516647 255 255 255
0.030172765 0.059214294 0.017749548 255 255 255
0.02967304 0.05946929 0.016943514 255 255 255
0.029173315 0.059724286 0.016137421 255 255 255
0.028673589 0.059979282 0.015331328 255 255 255
0.028173864 0.060234278 0.014525294 255 255 255
0.027674258 0.060489282 0.013719261 255 255 255
0.028214991 0.060585529 0.012582004 255 255 255
0.027714431 0.060841009 0.011774421 255 255 255
0.029290855 0.060780957 0.010298491 255 255 255
0.029825866 0.060880095 0.0091521144 255 255 255
0.029322326 0.06113705 0.0083399415 255 255 255
0.030890286 0.061081365 0.0068501234 255 255 255
0.030384958 0.061339274 0.0060348511 255 255 255
0.031947076 0.061286479 0.0045358539 255 255 255
0.030406892 0.061700225 0.0040609241 255 255 255
0.029900491 0.061958611 0.003244102 255 255 255
0.029394209 0.062217012 0.0024272799 255 255 255
0.028887808 0.062475413 0.0016104579 255 255 255
0.029410541 0.062580884 0.00044411421 255 255 255
0.028903186 0.062839776 -0.00037419796 255 255 255
0.029422939 0.062946707 -0.0015451312 255 255 255
0.02891475 0.063206077 -0.0023650527 255 255 255
0.028406441 0.063465446 -0.0031849146 255 255 255
0.028922498 0.063574329 -0.0043620467 255 255 255
0.028413355 0.063834175 -0.0051833987 255 255 255
0.028926432 0.063944519 -0.0063651204 255 255 255
0.029437721 0.064055815 -0.0075498819 255 255 255
0.031988084 0.063870996 -0.0094644427 255 255 255
0.032493651 0.063985229 -0.010658443 255 255 255
0.032997191 0.064100415 -0.011855423 255 255 255
0.032481372 0.064363673 -0.012687624 255 255 255
0.032982171 0.064480335 -0.013889253 255 255 255
0.032465279 0.06474407 -0.014723003 255 255 255
0.031948507 0.065007806 -0.015556633 255 255 255
0.03244549 0.065126419 -0.016764462 255 255 255
0.031927764 0.065390646 -0.017599702 255 255 255
0.030397952 0.065799028 -0.018057764 255 255 255
0.02988106 0.066062778 -0.018891454 255 255 255
0.030374348 0.066183329 -0.020105422 255 255 255
0.029856503 0.066447556 -0.020940661 255 255 255
0.030346811 0.066569507 -0.022159159 255 255 255
0.028820932 0.066976011 -0.022611082 255 255 255
0.028303206 0.067240223 -0.023446321 255 255 255
0.032811701 0.066800535 -0.026221156 255 255 255
0.033293426 0.066926911 -0.027453482 255 255 255
0.034776628 0.066914439 -0.029079914 255 255 255
0.034251153 0.067182556 -0.029927433 255 255 255
0.031722963 0.067728326 -0.029986858 255 255 255
0.031199396 0.067995474 -0.030831277 255 255 255
0.031675398 0.068124756 -0.032072842 255 255 255
0.031150997 0.068392381 -0.03291887 255 255 255
0.030626595 0.068660006 -0.033764839 255 255 255
0.030102074 0.068927631 -0.034610808 255 255 255
0.029577672 0.069195271 -0.035456836 255 255 255
0.031042755 0.069192022 -0.037112355 255 255 255
0.031510293 0.069325671 -0.038367808 255 255 255
0.030983031 0.069594756 -0.039218366 255 255 255
0.030455649 0.069863841 -0.040068984 255 255 255
0.030919373 0.069999412 -0.041330516 255 255 255
0.030391037 0.070268974 -0.042182624 255 255 255
0.030851901 0.070406049 -0.043448746 255 255 255
0.030322611 0.070676103 -0.044302404 255 255 255
0.026831925 0.071340799 -0.043904781 255 255 255
0.022360623 0.072133631 -0.043079376 255 255 255
0.021838129 0.072400287 -0.043922305 255 255 255
0.021315515 0.072666943 -0.044765174 255 255 255
0.019809663 0.073063225 -0.04518491 255 255 255
0.019288003 0.073329404 -0.04602623 255 255 255
0.018766463 0.073595569 -0.046867609 255 255 255
0.018244803 0.073861733 -0.047708988 255 255 255
0.017723262 0.074127898 -0.048550367 255 255 255
0.016223013 0.074521229 -0.048960865 255 255 255
0.015702307 0.074786916 -0.049800694 255 255 255
0.01518172 0.075052589 -0.050640523 255 255 255
0.014661014 0.075318277 -0.051480353 255 255 255
0.013165653 0.075709209 -0.051883161 255 255 255
0.0126459 0.075974405 -0.052721441 255 255 255
0.012126267 0.076239601 -0.053559721 255 255 255
0.01646632 0.075885907 -0.056606352 255 255 255
0.016912758 0.076030239 -0.057895482 255 255 255
0.027644455 0.05088836 0.060621679 255 255 255
0.027166665 0.051132187 0.059850991 255 255 255
0.026688874 0.051376015 0.059080184 255 255 255
0.026211083 0.051619843 0.058309495 255 255 255
0.025733292 0.051863663 0.057538688 255 255 255
0.025255382 0.052107491 0.056767941 255 255 255
0.025860965 0.052168563 0.05573678 255 255 255
0.025382221 0.052412868 0.054964483 255 255 255
